0.512247 -0.431507 -1.597108
0.803824 3.546330 -0.753426
-2.630342 0.085102 -2.069363
3.484929 0.446944 -2.398701
0.731024 -3.449986 -0.761838
-0.299175 1.624876 -1.016132
-0.843162 -0.019902 -0.316171
2.175956 0.098861 -1.212222
-0.204871 -1.815340 -0.981722
-0.914976 0.066817 -1.706078
0.618011 0.680589 -1.040758
0.699356 2.328771 -0.882187
2.634155 -0.512402 -2.136584
0.405125 0.445218 -2.334150
-0.400633 -0.737885 -1.069060
0.733580 -2.366290 -0.864247
3.356918 0.000732 -1.498761
1.227938 0.359896 -1.749272
0.596840 -1.267992 -0.977735
-0.209845 0.228861 -1.105874
-1.875229 0.076611 -1.541964
2.412268 0.545204 -1.974385
3.465569 -0.419663 -2.412808
0.582387 1.506743 -0.959453
1.260388 0.043373 -1.031043
-1.213799 0.218820 -0.945912
-0.090662 -0.161838 -1.985286
0.373612 2.971500 -0.839195
1.850481 0.038230 -1.859512
-0.112445 0.922050 -1.046121
0.200402 0.532030 -1.580523
2.723188 -0.289700 -1.396093
0.548542 -0.276975 -2.271057
0.046624 2.398632 -0.917385
0.312869 -2.866125 -0.846213
0.518857 0.051006 -0.963012
0.257558 -0.731868 -1.058929
2.729812 0.346817 -1.395328
1.221375 -0.270679 -1.750031
2.903447 0.626090 -2.327738
-0.838455 -0.253984 -0.918250
-0.402446 0.351426 -0.464193
-0.338329 -0.287892 -1.463169
-0.360411 0.372471 -1.659558
-1.339509 -0.132054 -1.378401
3.184563 -0.361874 -1.923216
3.211987 0.390668 -1.908595
0.345980 -1.862993 -0.934015
2.179128 -0.403239 -1.790957
-0.167389 -1.236882 -1.029017
1.626974 0.247083 -1.352425
0.004928 -2.284322 -0.917868
-0.723527 0.292479 -1.281940
-0.408510 -0.231380 -0.464894
0.903172 0.428978 -1.370254
0.854397 0.269259 -2.064465
0.121262 1.872882 -0.957458
0.634594 -0.419297 -1.055449
0.836128 2.792863 -0.823161
-0.772346 0.312576 -0.774715
0.174476 0.517891 -1.111920
-0.086023 -0.310549 -1.071949
1.830052 -0.175711 -1.359532
2.173794 0.309303 -1.655826
0.371265 1.116520 -1.021596
-2.204104 0.080391 -1.839566
-0.086075 0.278941 -1.984756
-0.443587 1.196308 -1.067453
0.734649 -2.828723 -0.820397
0.521166 0.486209 -1.847357
1.209224 0.045142 -2.060010
0.895233 -0.333900 -1.371171
2.725810 0.289877 -1.887193
0.183935 0.055983 -2.204938
0.735945 1.882980 -0.917338
-1.250851 0.329674 -1.335332
-0.421909 0.572028 -1.125596
0.206942 -1.378689 -0.989539
0.195254 -0.372957 -1.350294
0.727625 -1.969450 -0.902228
-0.417607 -0.103466 -1.044042
-0.728275 -0.163799 -1.282488
2.811767 -0.317747 -1.775097
-0.407665 0.061843 -1.959735
0.522380 0.485614 -1.361100
0.186424 -0.372288 -1.829124
0.849810 -0.171533 -2.064995
1.597696 -0.166472 -1.697527
0.728827 3.135951 -0.798036
0.057563 1.289951 -1.029445
2.561111 0.038326 -1.455630
-1.011488 0.066597 -0.687526
2.485373 -0.186190 -1.737207
2.164412 -0.215144 -1.492237
3.087950 -0.112958 -1.695500
1.645285 0.039416 -1.070183
1.240959 -0.276371 -1.355144
1.247625 0.364230 -1.354373
0.700160 0.342382 -1.067215
0.509504 -3.148894 -0.800903
0.656544 -1.633782 -0.943807
1.602006 0.247756 -1.697029
-1.097007 -0.231378 -1.154707
-0.412405 0.454952 -0.791036
-0.467208 -1.073770 -1.070182
-0.420613 -0.333890 -0.791985
-1.548138 0.147063 -1.478092
0.283321 -0.150132 -1.100524
0.924655 0.046823 -0.995658
0.319474 2.203639 -0.911638
2.907984 -0.550727 -2.326270
3.061847 0.333633 -1.434451
0.097270 -1.035117 -1.027725
0.515695 0.052561 -2.230042
3.183936 0.445614 -2.260004
-0.063821 0.438974 -1.326727
-0.705751 -0.143022 -0.581690
-0.079712 -0.737729 -1.051180
3.043625 -0.306192 -1.443812
2.491473 0.320807 -1.624075
0.427688 -0.219706 -1.983759
1.898540 0.209810 -1.510939
2.845800 0.093048 -1.581682
3.175179 -0.395845 -2.261016
-0.331747 -1.505371 -1.019896
-1.193799 0.069556 -1.570988
-0.584564 0.170221 -0.967751
-0.500889 0.863119 -1.103416
0.532617 -0.975840 -1.014717
0.252273 -0.300209 -2.278939
0.438333 -2.353688 -0.890846
0.563481 0.333738 -2.098263
-0.676187 0.215207 -0.385091
0.273908 0.839373 -1.057040
-1.158854 -0.073981 -0.912105
-0.432543 -0.449939 -1.126825
0.147956 0.224222 -1.118051
-0.663085 0.218684 -1.711329
-0.666300 -0.090246 -1.711700
-0.165878 1.932045 -0.977216
2.682763 0.485189 -2.100705
1.580229 0.041172 -1.968112
-1.454512 0.071831 -1.207421
-0.125076 -0.038320 -1.172674
0.872123 0.429849 -1.827774
0.864184 -0.333026 -1.828691
2.093714 0.035462 -1.661878
2.401598 -0.480045 -1.975618
0.082313 -1.762788 -0.971563
2.441104 -0.295305 -1.362984
0.285255 -0.449669 -1.065328
-0.078824 -0.372731 -1.537202
3.391795 -0.195561 -1.831289
-0.149854 0.595214 -1.060294
-0.020885 1.617290 -0.985311
-0.053360 -1.503653 -0.989064
2.951219 0.405101 -2.111229
2.943352 -0.350856 -2.112138
3.090824 0.163245 -1.695168
-0.077387 0.439636 -1.760394
-1.018778 0.312651 -1.115959
1.902804 0.072944 -1.216729
0.334550 1.613107 -0.976740
2.280939 0.171978 -1.449945
0.771362 -3.104890 -0.791698
2.447906 0.358211 -1.362198
0.567106 -0.674825 -1.040812
0.389465 -1.606623 -0.964968
-0.473590 0.292548 -1.204838
0.427533 0.247716 -1.100644
3.028132 0.020806 -1.417439
0.188604 0.276194 -2.075859
0.576872 -0.161587 -1.088718
0.184017 -0.164588 -2.076389
1.876957 -0.099981 -1.649529
0.843751 0.049098 -2.187811
0.195326 0.483204 -1.828096
3.396326 0.239835 -1.830766
0.172332 2.611907 -0.883135
-0.092018 0.058730 -2.101685
-0.733878 -0.015075 -0.896842
0.119116 -2.502317 -0.889284
0.608974 1.180331 -0.993618
0.488387 2.456671 -0.885062
0.273598 -2.097707 -0.926544
0.384732 1.968733 -0.939141
0.372123 -2.628526 -0.859726
0.427909 2.732753 -0.853280
0.379003 1.373777 -0.996443
-0.224905 -0.930103 -1.084332
0.206944 0.054244 -0.957255
2.158835 0.322483 -1.307529
0.513345 -0.382624 -1.362144
0.522305 0.535073 -1.595946
0.506213 0.920054 -1.025864
0.912325 -0.133264 -1.149907
0.916079 0.227499 -1.149473
-2.431590 0.082840 -1.907521
0.204157 0.482538 -1.349265
0.190477 -0.421804 -1.581670
-0.988775 -0.144725 -1.344410
-0.984366 0.278978 -1.343900
-0.056670 0.057004 -0.971684
2.762795 0.012530 -1.346022
0.514579 -2.056793 -0.913644
-0.085325 -0.323218 -1.761311
-0.786633 0.218552 -1.061276
-0.918548 0.146238 -0.452240
0.512131 -0.382025 -1.848401
0.659465 3.373019 -0.780334
0.879722 -0.382650 -1.592253
0.888685 0.478571 -1.591217
1.991727 -0.300739 -1.610116
0.558439 2.158311 -0.908576
0.011486 0.746254 -1.101753
-1.997398 0.078105 -1.727390
-0.635475 -0.034823 -0.239370
2.692713 -0.312123 -1.961744
-0.790546 0.064301 -0.690245
2.268464 -0.200064 -1.708550
2.319894 -0.022416 -1.357095
1.216493 0.235807 -1.953547
1.212521 -0.145888 -1.954006
-0.613654 -0.239286 -0.754766
-0.390611 0.252693 -1.856885
-0.394589 -0.129567 -1.857344
-0.069863 0.488464 -1.536167
-0.071759 -0.323882 -1.327644
2.842433 0.297979 -1.707129
-0.246833 0.427794 -1.170814
0.051262 2.073035 -0.953044
2.188243 0.472600 -1.789904
0.009288 -1.960876 -0.957894
-0.538870 -0.204975 -1.366709
-0.941815 -0.122177 -0.789443
-0.231145 -0.610901 -1.125854
-0.141553 1.353670 -1.035636
-1.347253 -0.076748 -1.107048
0.092098 -0.513701 -1.108114
1.622663 -0.167146 -1.352923
-0.970828 0.314423 -0.914057
1.252123 -0.115460 -1.164182
1.255433 0.202663 -1.163799
-1.222429 0.348780 -1.125908
-0.246831 0.783568 -1.121124
0.519101 0.440775 -1.077599
2.522380 -0.150144 -1.528434
-0.261742 0.059130 -0.965766
-0.701458 0.269553 -0.581193
-0.366893 -0.250421 -1.660307
-0.331078 0.408865 -1.462331
-1.333089 0.206323 -1.472547
0.360121 0.354621 -2.159827
2.477716 0.175258 -1.286360
0.653130 -2.649019 -0.847937
2.446993 0.343425 -1.816343
-0.234411 -0.203559 -1.180309
0.253102 2.434059 -0.894357
0.203570 -2.326161 -0.900081
0.065733 -0.033846 -1.131532
-0.799200 0.230441 -1.450187
-0.802636 -0.099795 -1.450584
-0.598130 0.280476 -1.538690
2.487508 -0.316222 -1.917486
1.231146 -0.307478 -1.545949
1.238467 0.395993 -1.545104
-0.329026 1.042081 -1.045706
2.474715 -0.113195 -1.286707
1.998744 0.373587 -1.609305
-0.602649 -0.153790 -1.539212
0.552513 1.835664 -0.939853
-0.789834 -0.089105 -1.061646
0.415260 -1.318139 -0.990482
-1.090657 0.193151 -0.802833
2.152839 -0.253703 -1.308222
0.763455 2.067534 -0.892864
-1.273812 -0.209499 -1.216799
0.591879 -2.949709 -0.823736
-0.265836 -0.380565 -1.077837
0.349126 -1.011065 -1.024154
2.082058 0.187392 -1.538706
-0.053377 1.098790 -1.060403
0.177948 0.998325 -1.048711
0.137725 2.236929 -0.931181
-0.078365 0.425327 -1.071065
-0.414188 0.225121 -1.043647
-0.103724 -1.059866 -1.034638
-0.600383 0.375842 -0.780581
-0.239345 1.200691 -1.062519
1.899347 0.253948 -1.242537
-0.698157 0.064675 -1.801322
0.093446 -2.126009 -0.926693
-0.872180 -0.070546 -0.577204
1.538304 -0.066953 -1.170317
1.540544 0.148228 -1.170058
-0.933197 -0.155540 -1.158675
-1.344187 0.217905 -1.106694
-1.043157 -0.019003 -1.530007
0.424303 -0.786249 -1.030493
0.557396 -0.271258 -2.092244
-0.051515 2.216305 -0.941847
-0.096449 -2.102003 -0.947039
0.278479 -1.208173 -1.010412
-0.304140 -0.036898 -1.161843
1.615501 0.303964 -1.518831
1.610013 -0.223376 -1.519465
-0.533304 0.329908 -1.366066
-0.478395 -0.169254 -1.205393
0.589119 0.418500 -2.250144
0.226559 2.057829 -0.941947
-1.487259 -0.015241 -1.458479
0.184863 -1.949348 -0.946765
0.433366 0.326007 -1.983103
-1.041348 0.154862 -1.529798
0.515369 -1.734019 -0.944145
0.838494 3.268076 -0.777550
0.134386 -1.598234 -0.973805
0.167675 1.708530 -0.979563
-0.777514 -0.184096 -0.775312
2.009595 -0.011621 -1.318873
2.182334 0.034300 -1.462694
0.624638 -3.320126 -0.781535
0.308708 -0.274636 -2.106227
-0.638942 0.147755 -0.235948
-0.586805 -0.045215 -0.968010
2.746041 0.154175 -1.465722
-0.413936 -0.919520 -1.052791
-0.854522 0.213235 -0.597295
2.743424 -0.097268 -1.466024
-0.679359 -0.089685 -0.385458
-1.097828 0.367592 -1.245337
-0.536825 0.061863 -0.858351
-1.141432 -0.183323 -1.304820
0.227033 0.686952 -1.079707
0.235648 1.487561 -0.995826
1.588312 0.172303 -1.875250
1.585579 -0.090322 -1.875566
0.783832 2.463063 -0.858441
0.651917 -2.230212 -0.887668
0.158311 -0.888809 -1.050980
-1.206687 0.068832 -0.857662
0.397365 -0.318277 -2.343967
-1.347609 0.070524 -1.045288
0.259672 0.410852 -2.278084
-0.932726 0.183778 -0.761751
0.241894 -1.745472 -0.962095
-0.119281 -1.647763 -1.002072
-0.083793 1.762771 -0.997971
-0.260761 -1.081216 -1.045001
0.691572 1.732510 -0.939760
0.697776 -1.785195 -0.921749
-1.675801 0.074388 -1.418667
-0.732234 0.142977 -0.896652
0.279336 1.852848 -0.957769
0.441624 -0.466698 -1.057566
-1.437477 0.195554 -1.303286
0.031883 -1.177912 -1.032412
0.119963 1.145816 -1.025103
-0.017957 -0.880945 -1.068728
-0.549310 -0.189228 -0.519312
-0.544091 0.312343 -0.518709
-0.841408 0.148681 -0.315969
0.010502 1.467096 -1.015875
-0.018853 -1.354071 -1.019267
1.794170 0.246034 -1.400846
2.796689 -0.211234 -1.662742
-0.831816 0.384061 -0.917483
-0.979730 -0.134054 -0.939315
0.342255 -0.603442 -1.051538
1.889023 -0.205222 -1.497942
-0.400754 0.422123 -1.143272
-0.408273 -0.300464 -1.144140
-0.156581 1.564505 -1.030177
-0.187926 -1.447948 -1.033799
-1.230438 -0.184211 -1.073286
0.594224 -1.418956 -0.963626
0.368449 0.442176 -1.092987
0.569396 3.252737 -0.798284
-0.059360 0.237608 -1.117469
0.118130 -0.680016 -1.078277
-0.653884 0.246793 -1.124827
-0.657700 -0.119950 -1.125268
-1.548662 0.072951 -1.323908
0.644358 0.519017 -1.054321
2.526146 0.211788 -1.527999
-0.983001 0.024875 -0.547236
-1.440052 -0.051988 -1.303584
2.188257 -0.090233 -1.352308
0.450852 0.571303 -1.070004
0.510993 -0.338410 -1.078536
-1.173665 0.195251 -1.479626
-1.176287 -0.056751 -1.479929
0.064239 0.907792 -1.070245
0.624270 1.368125 -0.974566
0.224008 -0.327921 -1.116519
0.583544 0.257345 -1.083696
0.694060 -0.243830 -1.067920
-0.161031 -0.478937 -1.061586
-0.468190 1.042253 -1.083945
-1.332989 0.070945 -1.521919
1.953347 -0.101893 -1.415751
1.879822 0.175355 -1.649198
-0.874828 0.172714 -1.618428
-0.877042 -0.040103 -1.618684
0.787164 2.926656 -0.818729
0.234090 0.330064 -1.077916
0.424587 -0.142857 -1.091380
0.573842 -1.107483 -0.994530
-0.440299 0.709214 -1.108938
-0.453784 -0.586752 -1.110496
-0.083204 -0.210851 -1.169094
0.136080 0.788999 -1.053333
2.221030 0.207419 -1.570190
2.078896 -0.116488 -1.539071
0.360345 -0.336639 -1.093924
-0.289933 0.588212 -1.158205
-0.364284 -1.167793 -1.063973
0.709282 2.747366 -0.841449
0.779002 -2.697189 -0.829761
0.295727 0.556675 -1.064118
0.425099 1.710344 -0.951246
-0.677615 -0.255459 -0.872849
1.915332 0.174664 -1.381809
-0.304426 0.369836 -1.278098
1.894189 -0.056381 -1.265607
2.451938 -0.107961 -1.418958
2.454839 0.170817 -1.418623
-0.334073 0.232487 -1.156631
0.355914 0.709195 -1.049960
0.213866 -0.578451 -1.081228
2.190845 0.158418 -1.352009
-0.503063 -0.829805 -1.095773
0.109406 0.621759 -1.058951
2.485447 -0.258187 -1.624771
0.302085 -1.506887 -0.980491
-1.071231 0.068347 -1.626571
-0.310874 -0.249868 -1.278843
-0.694603 0.063413 -0.781956
-0.231088 1.736865 -0.995692
-0.266005 -1.618802 -0.999727
-0.338729 1.288154 -1.061020
-0.002868 -0.633201 -1.103412
-0.841243 0.273799 -1.225925
2.278052 -0.105429 -1.450278
2.844437 -0.037951 -1.581840
2.489903 0.249098 -1.736684
-0.204325 1.047665 -1.081954
-1.083099 0.281926 -0.970756
