-1.272748 -3.236386 -0.372299
-1.125638 3.556031 -0.292649
1.628076 0.090335 -1.562362
-0.744081 1.049330 -1.009424
1.092175 -2.422067 -1.107180
1.224466 2.426534 -1.083907
-0.881423 -1.152657 -0.968385
0.119444 -0.229265 -1.685339
-0.263342 2.450664 -0.785265
0.655943 1.128052 -1.223072
-0.276863 -2.402109 -0.907632
1.664210 -1.262751 -1.512159
0.394791 -1.329980 -1.099132
1.696048 1.454056 -1.464813
-1.299540 2.549110 -0.559739
-1.284507 -2.246495 -0.728786
-0.745807 0.067880 -1.311804
0.962952 -0.624301 -1.477381
0.442719 1.987493 -1.088064
0.052055 0.467503 -1.128290
-0.879636 1.829050 -0.725759
0.502914 2.790815 -0.856388
-0.222058 -0.648318 -0.974406
0.794995 0.158674 -1.472796
-0.508300 -3.085009 -0.498453
-0.492000 3.177308 -0.563978
-0.010132 1.412953 -0.810902
0.427059 -2.678232 -0.812801
1.056346 -1.667229 -1.308404
-0.281293 -1.637042 -0.947346
0.242495 0.478240 -1.922258
1.081989 1.775253 -1.308909
0.469352 -2.029336 -1.109246
1.252211 0.944987 -1.498223
0.367260 -0.690529 -1.231837
-0.885527 -1.770310 -0.807287
-0.312010 0.338338 -1.692448
-0.996948 -2.769592 -0.669934
-0.176715 -0.073518 -1.197299
1.518472 -2.031305 -1.248400
-0.540967 -0.263770 -1.739630
-0.301536 1.887178 -0.873852
-0.743921 2.692660 -0.647424
0.863071 -1.146996 -1.330211
-0.209257 0.943952 -1.067086
-1.393117 3.101368 -0.425205
1.589596 1.962550 -1.261483
0.555115 0.604106 -1.298419
-0.100173 -1.159734 -1.043005
-0.748745 -2.263830 -0.724939
0.322933 0.079848 -1.323218
0.223849 2.387347 -0.912157
0.737391 2.401334 -1.074574
0.409910 1.502931 -1.029340
-0.556967 1.482445 -0.892339
-0.828569 -3.371685 -0.255089
-0.432801 0.522794 -1.110381
1.323310 -0.935492 -1.528605
0.602204 -0.298178 -1.370899
0.016807 -2.032620 -0.980961
-0.183029 -2.800044 -0.688708
0.146848 -2.496372 -1.133786
0.245775 0.922233 -1.143177
-0.144242 2.874290 -0.647257
-0.933537 2.271960 -0.610722
-0.950636 3.104337 -0.538682
1.105785 1.326030 -1.269755
-0.644218 -0.750157 -1.088191
0.654887 -2.430796 -1.202266
-1.419736 -2.864800 -0.564912
1.179705 -0.019440 -1.601262
-0.582823 -2.695229 -0.826928
0.892564 -2.043844 -1.177668
1.481261 -1.637390 -1.409418
0.093690 1.786390 -0.973827
0.657370 -1.661235 -1.170122
0.133426 -1.653525 -1.119417
0.192875 -0.304049 -1.230066
-0.719037 3.464449 -0.370712
-0.488265 -1.277873 -0.936057
-0.448438 -2.023881 -0.874524
0.916543 0.658343 -1.485233
0.766770 1.535293 -1.218118
-0.604296 2.126300 -0.776209
1.230748 -1.324277 -1.379189
0.837724 2.026216 -1.135132
-0.247325 -0.057842 -1.602713
-0.874337 -3.164495 -0.577567
0.805165 -2.581721 -0.892949
0.050167 0.279635 -1.640020
-0.386711 0.192793 -1.346691
-0.420172 -0.377221 -1.126834
-0.020177 2.123050 -0.836886
-0.230924 1.498962 -1.090072
-0.921228 1.487605 -0.847708
0.370591 -0.349358 -1.917641
1.342624 1.533944 -1.452800
1.226308 2.109162 -1.256159
0.214146 -0.988665 -1.097479
0.730131 -0.771241 -1.244981
0.140986 2.731506 -0.804054
0.060298 1.243392 -1.111002
0.391537 -2.325737 -0.948579
0.847171 2.694377 -0.931998
0.938297 0.967069 -1.325482
-0.363347 -0.957937 -0.965318
-0.997569 -1.475481 -0.932904
-0.216710 -0.306111 -1.830712
0.527682 -1.040559 -1.225516
-0.614721 -1.597806 -0.923964
-1.181260 -1.939071 -0.816759
1.494357 1.197650 -1.537039
0.034846 -2.593385 -0.835884
1.193645 -1.929938 -1.457450
-1.141625 2.032073 -0.715523
0.041042 -0.659261 -1.186665
-0.029814 0.206628 -1.328133
-1.088719 2.801935 -0.544627
-0.400083 1.169665 -0.921923
-1.319366 -2.570963 -0.685440
-0.423090 2.756764 -0.770268
-0.560724 2.396072 -0.609819
-1.033311 -2.418668 -0.639063
-0.512169 0.827729 -1.072045
-0.098424 -0.379940 -1.131538
0.627458 1.723518 -0.974216
1.199910 -2.123231 -1.212121
-0.209526 0.253505 -1.077793
-1.114536 -2.981905 -0.479138
0.326413 0.403900 -1.258945
1.053028 -0.909281 -1.388192
-0.596662 1.796167 -0.836441
0.363005 1.208394 -1.115363
0.855665 -1.444628 -1.260368
0.971155 1.713956 -1.037598
-0.282307 2.162979 -0.704547
0.553048 -0.010735 -1.489095
0.556625 2.215337 -0.932549
0.112480 -1.341148 -1.186155
0.213520 -2.168135 -1.158696
0.015760 0.751850 -1.057815
-1.138817 3.278674 -0.387284
-0.693246 -2.912296 -0.643964
0.040991 -0.068687 -1.392774
0.482051 2.510049 -0.987588
0.004636 -2.311679 -0.906491
-0.311954 1.591436 -0.785695
0.989943 2.282961 -1.164506
1.702331 1.714027 -1.348796
-0.732252 -2.013588 -0.858987
-0.570644 -2.284543 -0.945099
0.268670 1.972460 -0.851539
-0.688574 2.975091 -0.584383
0.533380 0.874180 -1.221189
0.200502 1.799460 -1.234127
0.003101 -0.941991 -0.898057
-1.013659 -2.147433 -0.730437
-0.649641 -0.996063 -0.954878
0.395541 -1.761396 -1.128811
-0.800231 -2.555297 -0.704617
1.395371 1.780595 -1.338472
-0.988935 2.537717 -0.565138
-0.077431 -1.457296 -0.977089
-1.096161 -3.405766 -0.212227
-0.401512 -0.077713 -1.351258
0.659703 -2.157683 -1.254448
0.285066 0.705426 -1.299020
0.127486 1.498715 -1.025522
0.573216 -0.569390 -1.355289
-1.368971 2.860366 -0.533067
-0.218948 -1.894030 -0.934423
0.659798 -1.265844 -1.184391
0.941834 -2.303278 -1.289183
0.661189 -2.261216 -1.000255
-0.054021 2.462954 -0.944510
-0.436193 -2.888156 -0.692042
-0.746394 1.291779 -0.909868
-0.248119 -2.180240 -0.771637
-0.836455 3.391560 -0.592659
0.834624 -1.806861 -1.295429
-1.193339 2.314326 -0.600211
-0.766793 -1.365883 -0.872773
1.152861 1.187079 -1.484676
-0.490508 2.338527 -0.873836
0.223170 -1.878872 -0.949271
0.071640 -0.034069 -1.135399
0.748122 0.797502 -1.338258
-0.169943 0.179315 -1.539557
0.931738 -0.054875 -1.491035
0.323429 2.227999 -1.083165
1.468497 2.171737 -1.183599
-0.232755 0.669650 -1.061210
-0.106452 2.667397 -0.787856
0.561677 1.385040 -1.193756
1.414384 -1.160233 -1.458899
1.706190 -1.528074 -1.441489
0.580139 0.361881 -1.361487
0.857325 1.288685 -1.263204
0.219728 -1.203645 -0.967678
-0.340157 -2.632904 -0.790017
0.057286 1.010179 -1.003809
-0.545903 -2.467560 -0.729722
-0.697863 -3.219618 -0.406120
0.582936 1.788383 -1.211212
0.548096 -2.523423 -0.966866
-0.173928 1.247530 -1.024631
0.783514 -0.454182 -1.442828
-0.519008 0.275013 -1.569381
-0.159730 -0.912827 -1.100449
-0.785463 2.042991 -0.628529
-0.042423 -1.704000 -0.951390
-0.135874 1.700872 -0.920893
-0.971287 -3.175388 -0.294785
1.008938 2.542242 -1.034549
1.411866 -0.013993 -1.515929
-0.640221 -1.810001 -0.762554
0.390126 1.748646 -1.068301
-1.166227 -3.440091 -0.447035
0.380622 -0.450331 -1.274607
1.618121 -1.832093 -1.335674
1.468870 -1.399341 -1.427483
1.010975 1.531723 -1.193677
0.452710 -2.276587 -1.246543
0.613720 2.221031 -1.168594
1.283331 -1.735941 -1.299894
0.279424 2.692922 -0.991670
-0.315495 3.021974 -0.581871
0.245979 -2.539879 -0.924400
0.854179 -2.366676 -1.081387
0.166286 0.199102 -1.196421
-0.404087 -0.758258 -1.079967
-1.156133 3.012714 -0.469559
1.076584 -1.914965 -1.240037
0.324956 -0.982084 -1.324323
0.667639 -1.927795 -1.175884
-0.290433 1.364970 -0.831432
-1.103132 -1.709660 -0.859581
-0.720055 3.200159 -0.531270
-1.413674 -3.071739 -0.453445
-0.846181 -2.652639 -0.499831
-0.444973 -1.792462 -0.897401
0.750771 0.505205 -1.436470
-1.350760 3.361516 -0.355162
-0.481294 -0.090210 -1.566094
-0.784972 2.468307 -0.669512
-0.299267 -1.401146 -0.983939
-1.033765 3.467751 -0.481689
1.205881 -1.090290 -1.400077
1.053352 0.148289 -1.518340
0.471119 -1.534821 -1.181744
0.655767 1.943397 -1.013964
-1.217077 -2.818345 -0.651265
-0.768338 1.645877 -0.793908
-0.890311 -2.954477 -0.741550
-0.076232 1.907977 -0.831949
1.086817 0.800768 -1.464087
-0.571598 2.592934 -0.743995
-0.292391 -1.177182 -0.916265
1.216256 1.597515 -1.242827
1.042736 1.970447 -1.192270
-0.059271 -2.471442 -1.061050
0.201439 -2.133940 -0.921768
0.794197 1.754604 -1.165813
-0.225563 -2.188249 -0.988932
0.146112 1.242681 -0.910404
-0.599459 0.087494 -1.471991
-0.379190 0.059507 -1.174574
0.180921 2.159849 -0.933211
0.149605 0.121496 -1.447840
-0.904340 3.539338 -0.289005
1.299854 1.325383 -1.408275
1.057026 -1.449872 -1.337266
-0.891277 2.849855 -0.642236
-0.410901 0.954702 -0.924906
-0.595171 1.942497 -0.631139
-0.891070 -2.862752 -0.505068
0.233981 1.606429 -0.874068
0.735413 -0.979319 -1.293998
1.300747 -1.533128 -1.365185
0.028286 -1.070083 -1.187459
0.199792 -0.737829 -1.068926
-0.516779 -0.581864 -1.116935
-0.735752 1.956060 -0.846474
-0.229814 0.044460 -1.375486
-0.398885 2.075123 -0.862318
-0.739841 2.286778 -0.800317
-0.046439 -0.125680 -1.605082
0.408042 -0.243374 -1.306162
0.246160 -1.477746 -1.086388
0.183266 -0.499527 -1.154117
1.163159 -0.784896 -1.515073
-0.188207 0.467234 -1.085854
0.270925 -1.968255 -1.157682
-0.518206 0.392524 -1.740899
-0.483415 2.922550 -0.660354
0.655801 2.650660 -0.999566
-0.437058 1.668338 -0.932329
-0.002627 2.014756 -1.012287
0.783936 2.195461 -1.029191
0.355706 -1.154016 -1.208062
1.393209 2.018113 -1.336313
-0.166937 2.294598 -0.879560
-1.017527 1.687509 -0.783945
-0.430448 2.649739 -0.594421
-0.305300 -0.197424 -1.094634
-0.684669 -1.207461 -0.986838
0.196780 0.343828 -1.052424
-0.510233 -2.150129 -0.725898
0.446492 -0.869384 -1.148855
-0.883324 2.697321 -0.493501
0.607516 1.548330 -1.080782
1.336979 -1.970786 -1.318542
0.191754 -2.331266 -1.023806
0.033771 -0.852068 -1.114866
-1.058011 -3.183053 -0.492534
1.013576 -1.271485 -1.251204
1.525381 1.662730 -1.439931
-0.814078 -1.587553 -0.890989
1.499084 1.384806 -1.460877
0.654029 -1.460528 -1.237902
-0.261481 -0.556582 -1.148953
-0.483407 -2.536692 -0.907612
1.004405 1.156135 -1.232689
0.737081 -0.060852 -1.428197
0.160744 0.640866 -1.156019
1.247147 -2.295634 -1.107217
-0.988492 -1.940314 -0.764042
0.224330 -2.683169 -0.786823
-0.122570 1.858240 -1.042839
-0.105007 0.085201 -1.095234
-0.598428 1.159765 -0.930749
-0.397526 1.059412 -1.093215
-0.138538 -2.710362 -0.859539
0.868691 2.559676 -1.172936
0.182276 0.346668 -1.770773
0.390336 -0.614252 -1.414937
-0.017756 0.282926 -1.130648
-0.365656 1.353445 -1.013498
0.416584 1.019192 -1.131433
0.007035 -0.196707 -1.223473
0.788348 -0.640341 -1.384943
-0.387691 2.324757 -0.677765
0.965700 -2.496434 -0.962471
0.481424 0.162532 -1.400052
-0.060081 1.414153 -0.998779
1.385147 -2.174507 -1.170427
-0.046344 -1.584505 -1.143858
-0.556819 0.030459 -1.288266
-0.256797 -1.087275 -1.131648
-0.322079 -0.208843 -1.698657
-0.599951 3.335000 -0.461155
0.377094 2.145852 -0.912545
-1.253342 2.717064 -0.473862
0.316244 1.320700 -0.956132
1.030199 -2.195635 -1.156072
-1.102721 -2.609784 -0.688687
0.101866 2.537640 -0.859876
0.871251 -0.826755 -1.363315
-0.411548 0.087123 -1.540124
-0.875719 -2.382580 -0.806620
-0.769883 -2.779474 -0.758773
-1.284536 -3.006254 -0.577013
1.234204 1.885330 -1.279894
-0.413400 -2.273352 -0.839383
0.429736 0.724650 -1.168154
1.289085 0.129020 -1.557707
0.216029 1.362188 -1.121541
-0.714890 -3.074477 -0.533616
1.169607 1.470574 -1.373455
0.206588 1.103731 -1.114774
-0.973532 2.094133 -0.655508
0.238242 0.266601 -1.368771
0.325958 2.769555 -0.798102
-0.112231 -0.729544 -1.104792
-0.105670 -2.472452 -0.878383
1.130459 2.174580 -1.104898
0.881977 -1.629305 -1.245668
-0.470898 -1.510972 -0.841762
1.106548 1.036896 -1.367518
-0.164661 1.507450 -0.864260
0.768365 -2.120615 -1.061176
0.013141 -1.846277 -1.058545
-0.878929 3.255145 -0.450508
0.050676 0.916586 -1.164087
0.363829 -0.008958 -1.481081
-0.194558 2.044547 -0.873093
1.288334 2.271890 -1.163013
0.379190 -2.186421 -1.069171
0.039874 2.311260 -0.897874
0.548450 -0.734823 -1.278066
1.447327 -1.836675 -1.403728
0.708379 1.282642 -1.138920
-0.087419 -2.156402 -0.872193
-0.656282 -1.863652 -0.937022
0.721088 0.940769 -1.227535
-0.520448 -0.841036 -0.965592
-0.177412 -2.614288 -0.708664
-0.847860 -2.153412 -0.843162
0.982807 -1.774718 -1.172687
0.712463 -2.459497 -1.010316
-0.135798 -0.110788 -1.374161
-0.307857 -1.953291 -0.784632
-1.063435 1.876169 -0.762544
0.267529 1.616544 -1.072114
-0.217145 0.226899 -1.297592
0.343369 -1.644013 -1.003022
-0.280273 2.630825 -0.761810
-0.016773 0.073793 -1.495142
0.255076 1.863135 -1.041623
-0.442766 1.918692 -0.768576
0.080934 -1.539627 -0.987777
0.328081 -2.400208 -1.116264
0.075670 -2.195300 -1.048720
-0.700626 -2.064435 -0.690973
0.536560 -1.839314 -1.052677
0.266837 -0.854379 -1.214650
0.543433 1.597521 -1.239460
-0.731180 1.470490 -0.859819
-0.068029 0.596324 -1.103187
0.043268 -1.261240 -1.021987
-0.630890 2.830148 -0.691994
0.597857 -2.646473 -0.845712
0.571573 -2.108519 -0.988899
0.654005 0.086608 -1.377775
1.326045 1.154965 -1.472760
-0.511616 -1.103027 -0.930396
-0.216991 0.420956 -1.815796
0.092907 1.968004 -0.857833
0.398408 0.560622 -1.224578
-1.230677 3.160623 -0.528453
0.427678 2.330062 -0.985354
-0.704003 -2.469117 -0.823235
-0.450972 1.736650 -0.759513
0.395818 2.619102 -0.881343
0.497713 -1.049394 -1.053402
0.828641 1.123858 -1.199412
0.101685 0.063714 -1.285094
-1.041060 -2.986350 -0.660799
-0.314141 2.878339 -0.683198
0.064432 -0.567882 -1.040860
0.209989 -0.133029 -1.205299
-0.007874 1.572410 -0.945575
0.929989 1.698157 -1.278215
1.030686 -1.118802 -1.362871
-0.345025 2.239285 -0.852087
-0.439007 2.481897 -0.744567
0.788554 -2.020771 -1.313686
-0.510799 -1.437329 -0.998636
