1.345852 2.455917 -0.137870 
0.956594 1.824733 -1.218144 
3.521266 -1.845861 -0.925122 
-2.433644 -2.781857 0.385864 
-1.400985 -2.097852 -0.560927 
-0.432866 -3.275535 0.589400 
-1.502144 -2.996091 0.658984 
-1.911512 -4.307509 2.475795 
1.938046 -2.182353 -0.488938 
3.000172 2.578827 0.012998 
-0.220760 1.325322 -1.839526 
3.216428 -2.418051 -0.214844 
-1.265159 -2.168370 -0.461704 
0.098801 1.578584 -1.191542 
-0.006908 1.643299 -1.325164 
-0.561907 2.400890 -0.211481 
1.026805 -1.699195 -1.124870 
0.471569 0.720958 -2.752093 
2.942919 1.827301 -1.135206 
0.843184 2.295094 -0.393534 
1.178910 1.693312 -1.514802 
-2.569088 -4.246794 2.018174 
0.442587 3.044297 0.731614 
-2.394773 -4.224464 2.390928 
-1.521566 -2.322009 -0.210404 
2.607555 1.496168 -1.621171 
-2.789654 4.486146 2.901119 
-0.664315 0.763132 -2.726391 
-0.623901 -0.580281 -2.700725 
0.941822 2.689098 0.249550 
-1.494677 2.172446 -0.559498 
-2.125262 3.213234 1.011893 
-0.434669 -3.311923 0.881172 
-0.373168 -2.935975 0.591472 
-2.377626 3.219976 1.035089 
-0.052541 1.767781 -1.122980 
-0.580477 -0.492582 -2.633825 
-0.564491 0.270539 -3.431693 
0.783312 -3.425885 1.257718 
0.433641 2.017538 -0.784378 
0.392779 1.540694 -1.535222 
0.362880 2.787832 0.733287 
2.949482 1.716971 -1.181211 
3.126767 1.992001 -0.900390 
1.351326 1.089221 -2.224339 
-2.113323 3.258828 1.080032 
-0.896892 -1.942746 -0.322669 
0.053289 -1.706479 -1.114280 
2.021576 -2.137557 -0.511773 
2.067282 1.821404 -1.122287 
2.169168 -2.506938 0.150129 
-2.906638 3.039785 0.758573 
0.262255 1.695956 -1.283768 
1.127435 -0.352839 -3.070069 
2.675907 2.161114 -0.651726 
1.030278 2.420763 -0.201376 
2.409637 -1.787879 -0.654228 
-0.113833 2.637656 0.151142 
0.806284 -1.859674 -0.644501 
1.783304 2.329374 -0.305656 
-0.917058 1.959270 -0.878339 
-0.715605 -1.349256 -1.616024 
-1.210469 3.905059 1.998624 
0.998117 -1.882689 -0.465985 
3.499513 -2.045769 -0.682518 
-0.705198 1.576336 -0.891958 
2.318677 2.113092 -0.651382 
1.266786 2.601034 0.185981 
0.139200 -2.456028 -0.295245 
-1.840721 2.714813 0.322970 
-1.386670 -2.540702 0.069388 
0.206748 1.845339 -1.047863 
0.277421 -3.254578 1.012819 
0.587824 3.327009 1.369899 
1.456160 2.393873 -0.211018 
2.910753 1.800807 -1.158924 
-0.109681 2.780790 0.372904 
1.771315 2.240005 -0.806392 
2.749525 -1.907578 -0.869457 
0.655790 -2.853271 0.603878 
-0.764083 1.868593 -1.010849 
0.130980 -0.815386 -2.363971 
1.189139 0.785133 -2.484666 
1.616799 2.407150 -0.154300 
1.046184 2.168524 -0.306769 
1.928046 1.404270 -1.786625 
1.949942 -2.114898 -0.542268 
-0.920352 -1.390236 -1.876546 
-2.687026 3.592366 1.595724 
2.623064 -1.986269 -0.751254 
0.009264 1.187951 -2.047108 
-2.570052 -3.446840 1.328272 
-1.401104 2.817051 0.492740 
1.941397 -2.260035 -0.488387 
1.231251 2.260663 -0.204663 
2.191777 1.921225 -0.961147 
-0.233154 0.382933 -3.316106 
-0.129194 -2.632722 0.199011 
2.002622 -1.733641 -1.232865 
0.369465 -3.065514 0.491525 
2.050274 -2.109698 -0.559734 
0.142148 0.361933 -3.373020 
1.026883 2.794553 0.390317 
-0.989564 1.145830 -2.111149 
2.168993 2.466094 -0.084500 
-0.700181 -0.975159 -2.137034 
-0.760039 -1.327103 -1.654597 
2.652997 2.114333 -0.551364 
-0.722931 -1.382495 -1.569298 
-0.831982 -0.433272 -2.893087 
-1.381565 3.028553 0.784798 
-0.659262 -1.582659 -1.288007 
1.269286 -0.636842 -2.657744 
-2.438251 -4.351096 2.552101 
0.799968 3.383798 1.242700 
3.310020 2.124231 -0.672539 
-0.734102 -1.689650 -1.374050 
-1.062890 1.479495 -1.593074 
0.205892 0.436691 -3.259745 
0.203645 0.534579 -3.106078 
0.192247 0.452772 -3.305010 
-0.639193 -1.802625 -1.216596 
0.782335 -1.420743 -1.514338 
-0.129150 0.464415 -3.227680 
-0.208117 0.522234 -3.092154 
-0.053655 -3.325117 1.104492 
-0.413545 -1.627682 -1.224431 
-1.270923 2.250077 -0.441382 
-0.481699 -1.685633 -1.142715 
-1.223099 1.356044 -1.738296 
-0.673458 -3.264624 1.047213 
2.931766 -1.828255 -0.982093 
0.594790 3.183830 1.174342 
0.197372 0.722357 -2.816453 
-2.046057 1.549557 -1.496355 
1.456707 -2.487005 0.132974 
0.410433 -3.140152 0.989065 
1.652236 -1.223134 -1.822388 
2.251776 2.692951 0.203386 
2.013555 1.433639 -1.877163 
-0.655158 2.509849 0.020040 
1.373764 1.937077 -0.924818 
-2.151654 -1.900015 -0.842914 
0.551371 0.999626 -2.329743 
-0.406665 -1.507303 -1.393521 
-0.993646 -3.035020 0.642154 
1.348883 -1.802911 -0.650457 
1.358484 -1.634866 -1.216605 
0.140372 3.068494 0.779029 
1.940897 1.645654 -1.379178 
3.076729 1.773288 -1.207792 
-1.603701 3.995215 1.933705 
-2.525186 -2.933990 0.615965 
-0.680307 2.509594 -0.047483 
-1.930803 3.107707 0.849553 
2.000360 0.941461 -2.497748 
2.296596 -1.147587 -1.944061 
0.789477 -0.629102 -2.638120 
1.468478 1.339418 -1.853021 
0.906716 0.952545 -2.336502 
-1.178825 2.657578 0.247632 
1.030911 2.843924 0.703208 
0.922357 -2.590176 0.294192 
1.981195 1.298303 -1.920928 
-2.863576 -2.269933 -0.328286 
-3.246561 3.361184 1.252434 
1.651338 1.037343 -2.338658 
0.926711 -2.117081 -0.716161 
0.208762 3.172678 0.912778 
2.648273 -1.376631 -1.615906 
-0.014746 -1.038281 -1.982663 
-0.558847 2.830424 0.432593 
1.368124 1.374580 -1.787235 
-3.112706 3.869684 2.294258 
-1.549155 2.138817 -0.613700 
-1.187770 1.113920 -2.163723 
1.681793 -0.994321 -2.165241 
3.154351 2.413031 -0.235522 
-1.113179 -2.762155 0.363467 
2.969873 1.655633 -1.334940 
2.624760 -2.716231 0.257293 
-1.263870 -1.114830 -1.941898 
2.585554 -2.871767 0.464321 
1.834916 -1.055645 -2.035457 
-0.672388 0.533267 -2.821653 
0.550526 -0.700188 -2.224038 
1.730132 3.041165 0.730518 
3.021973 2.053322 -1.028915 
-0.267917 2.415552 -0.176458 
1.123189 0.591351 -3.011694 
-0.947786 2.550473 0.200792 
2.503723 -2.843878 0.464822 
1.078004 0.847735 -2.602464 
-1.983579 2.603204 -0.428562 
1.374452 -1.611676 -1.250638 
3.379357 1.799362 -1.119302 
1.265466 1.397756 -1.786294 
0.251992 2.831560 0.620448 
-2.134641 2.889295 0.533191 
-0.988503 -2.082273 -0.522089 
2.454384 2.479412 -0.061194 
-2.768502 4.392032 2.774829 
-0.406068 -0.059032 -3.427799 
-1.067307 1.246699 -2.004049 
-1.082010 -0.603627 -2.669834 
2.222941 -2.518949 0.014627 
0.456481 3.115455 0.841010 
0.263208 -3.263675 1.024702 
0.117370 0.657612 -2.865542 
1.889653 2.165833 -0.571199 
-1.581202 1.089560 -2.236448 
-1.878672 -2.977391 0.659110 
3.091051 -1.643913 -1.246201 
2.845304 2.542586 0.214009 
2.616298 1.923092 -1.148294 
0.382170 -2.108586 -0.212188 
-2.610986 2.238134 -0.456450 
3.230806 2.531812 -0.064584 
2.619563 2.708341 0.223090 
2.988781 -1.586914 -1.323777 
0.239770 3.335161 1.278537 
-0.460674 1.022035 -2.203177 
1.938936 -2.124311 -0.339681 
0.746636 0.569985 -3.032848 
-1.209045 -3.440703 1.322215 
2.496322 1.430004 -1.816818 
2.413217 -2.722077 0.279552 
-2.716532 2.788778 0.378845 
1.816203 1.118500 -2.213508 
-1.163160 -1.628795 -1.228189 
1.609110 -0.659218 -2.644345 
1.052368 -2.978982 0.660280 
3.202225 -1.918030 -0.856674 
1.688717 1.494107 -1.610381 
-2.271498 -3.255847 1.058414 
1.051824 1.499938 -1.797479 
-2.948817 -2.398329 -0.146289 
3.310399 1.631722 -1.433726 
-0.030348 2.435773 0.104688 
2.087503 1.158915 -1.962248 
1.032388 -2.916074 0.573313 
2.006288 1.236482 -1.890784 
0.223710 3.555764 1.518254 
-0.419715 -2.424303 -0.089660 
-2.920981 -4.501937 2.781068 
3.048063 2.140718 -0.645148 
1.304666 1.458383 -1.663843 
-1.210053 -2.525667 0.040756 
-0.209752 -1.900823 -0.446140 
2.425834 -1.617364 -1.273973 
0.388080 -2.186529 -0.432603 
0.386102 3.477399 1.377245 
0.050831 3.510436 1.498268 
1.455258 -0.887392 -2.302352 
0.878809 3.238137 1.298388 
-1.228284 -2.921562 0.750401 
-0.228327 2.008055 -0.804324 
0.453344 2.723363 0.452584 
-1.414853 1.524119 -1.709541 
-0.258779 0.574021 -2.964474 
-3.113373 -3.809433 1.860575 
1.266996 2.531868 0.320401 
1.534825 1.455241 -1.661394 
2.550759 -2.544061 -0.080172 
1.106618 -0.999913 -2.121038 
1.918124 -1.696882 -1.419580 
-2.343181 -2.417764 -0.113576 
2.293711 -2.385070 -0.536980 
1.438738 -2.191972 -0.219912 
-1.737901 -2.293645 -0.286072 
-2.490889 -4.061730 1.992389 
-2.826933 3.705375 1.767914 
1.637755 -2.762868 0.368971 
0.164606 -1.298580 -1.689489 
-1.819228 3.868151 1.965786 
-0.576795 1.091556 -2.194337 
2.142410 2.932077 0.556634 
0.473105 3.201575 0.966420 
-0.280945 1.192208 -2.034801 
1.519172 1.736270 -1.232743 
-0.604678 -3.065030 0.642289 
0.449857 0.477997 -3.208200 
-1.474334 -1.238250 -1.832589 
-0.682742 1.773959 -0.993930 
-1.887961 -3.164939 1.016373 
-0.693924 2.212781 -0.127846 
3.271066 2.246754 -0.389961 
-2.681319 -2.875514 0.527529 
-2.543131 -1.868865 -0.901096 
-0.376375 -2.469206 -0.204259 
0.119762 3.292312 1.099327 
1.789255 1.536750 -1.535565 
1.872162 -1.369675 -1.402492 
-3.506980 3.697539 1.736266 
1.042176 -3.485073 1.330166 
1.950956 -2.694724 0.256738 
-1.250576 2.629910 0.288443 
1.769088 2.760659 0.339827 
-1.964571 -2.034384 -0.652694 
2.068767 -2.793237 0.398031 
2.622659 -2.897922 0.493569 
-0.123003 -0.740310 -2.415942 
-2.759379 -4.165120 2.155957 
3.407646 -1.754195 -1.100820 
-2.554922 2.774705 0.491069 
-0.309588 0.455862 -3.132288 
-2.818090 3.367084 1.149416 
0.022940 -1.162713 -1.604109 
-0.387900 -2.649193 0.216391 
0.969939 2.387677 -0.045939 
0.371305 -1.398615 -1.666102 
0.345658 2.814690 0.402940 
-0.673352 -1.022141 -2.016706 
-1.064290 -2.710135 0.683919 
0.140577 1.713690 -1.233034 
1.046422 3.245276 1.041065 
0.223983 -1.664947 -1.168910 
-2.526836 -3.007420 0.580193 
2.010843 1.178388 -2.104460 
-3.314027 -3.403678 1.264890 
-2.635264 3.180673 1.128534 
-1.699188 -3.339917 1.145528 
-0.190758 -3.466566 1.341576 
-2.015399 1.545583 -1.510265 
-2.521312 4.430069 2.818994 
-3.187848 -4.330725 2.563895 
1.530953 -1.597098 -1.272097 
1.212644 -2.765476 0.415181 
-0.121228 -1.104484 -1.958797 
-1.048049 -3.512790 1.359936 
-2.706427 4.306412 2.656397 
2.613419 -2.548523 0.088218 
1.066507 1.600077 -1.453708 
3.183417 1.616945 -1.472989 
-0.569262 2.891662 0.572567 
-2.782048 4.351598 2.727267 
1.016685 0.591544 -3.002073 
-0.065647 1.544563 -1.370801 
-0.337153 -0.914830 -2.225913 
0.934597 -2.617101 0.176324 
-0.213478 -3.067874 0.765606 
1.351148 2.358104 -0.264526 
-0.858400 -2.360731 -0.187714 
1.247550 -1.076293 -1.836104 
0.940008 3.250357 1.034880 
-0.963690 -0.847718 -2.233837 
1.031591 -2.714574 0.270105 
0.746460 -2.625678 0.179506 
0.689004 -0.972165 -1.897724 
-0.037661 -2.102790 -0.569758 
1.180108 0.945656 -2.445966 
-1.201634 -2.587229 0.083971 
2.041347 -1.660965 -1.188326 
2.739634 2.901141 0.548622 
0.205461 -1.395522 -1.624557 
-0.016264 1.094640 -2.181086 
-1.243280 -3.725097 1.682331 
-1.825346 -2.564239 0.348743 
-2.775749 3.281609 1.165110 
0.831258 3.364385 1.310884 
-0.139328 2.240485 -0.096461 
-2.429880 3.512944 1.490985 
0.668520 0.940393 -2.398033 
3.037727 -2.194065 -0.450754 
1.818298 1.002427 -2.262155 
1.626329 2.023243 -0.797491 
1.516010 -2.594616 0.284010 
-1.907872 4.018514 2.187760 
-3.082839 2.698517 0.236229 
0.330309 -3.113638 1.017556 
1.468565 -1.529162 -1.366671 
-0.601512 2.520843 0.294911 
-1.355189 1.316382 -1.856672 
-2.000743 1.730088 -1.227841 
0.437492 -2.703945 0.293955 
-2.057152 3.247938 1.061892 
-0.320092 -3.103979 0.813267 
-1.324885 2.038091 -0.746849 
-0.162870 2.948140 0.953972 
-2.827724 3.284423 1.133347 
1.024350 0.837206 -2.659294 
-0.441482 0.333542 -3.365782 
-1.008253 3.109219 0.834797 
-2.367661 4.508570 2.931442 
2.097499 -1.241780 -2.219609 
-2.124550 -3.455112 1.396913 
-0.353666 0.579709 -2.994789 
-0.030937 -2.133384 -0.514069 
-0.005244 0.536351 -3.143648 
-1.635529 -3.555371 1.061914 
0.143422 -0.795455 -2.384156 
-0.010285 -2.134517 -0.352183 
0.767822 -2.117437 -0.257381 
1.123662 2.383426 0.048011 
1.489681 2.367951 -0.243137 
-0.741208 -0.948746 -2.049574 
0.606026 2.530329 0.051018 
1.601335 1.072676 -2.417017 
0.988688 1.625572 -1.416232 
-3.330278 -3.527795 1.423193 
-3.147063 2.952049 0.649817 
-0.051815 1.124846 -2.127526 
2.771825 -1.630107 -1.255346 
2.488719 -1.003198 -2.154075 
-0.478068 -3.452617 1.275399 
-2.108348 -2.480240 -0.194402 
-0.723989 2.908212 0.532803 
-0.088567 3.190585 0.988087 
-1.135546 -2.391037 -0.218799 
-2.193259 4.356869 2.522449 
-2.854536 -2.247230 -0.361526 
1.285908 -1.531032 -1.361055 
0.818456 1.650602 -1.367716 
-2.824694 4.475606 2.852449 
-2.055208 3.089885 0.858437 
0.869496 -2.200855 -0.385156 
-2.096612 3.264120 1.263849 
1.731564 1.293792 -2.130842 
2.062680 0.970372 -2.452206 
-0.743448 0.598151 -2.807032 
0.628299 2.444122 0.172294 
-3.017857 -4.111128 2.084232 
0.487166 -1.320874 -1.786072 
-0.480318 1.813157 -1.086538 
-0.441346 -0.374881 -2.918652 
2.066870 3.243167 0.937776 
1.157926 0.720068 -2.791008 
1.308283 0.884188 -2.521635 
2.139691 -2.880991 0.499873 
2.022846 1.352151 -1.821519 
1.944347 -2.687518 0.248399 
0.182105 1.631003 -1.384308 
-2.979469 -4.395299 2.632657 
-1.859725 1.479345 -1.601331 
2.271089 -2.782571 0.136545 
-3.290859 -3.777214 1.788597 
-1.406599 3.372316 1.269314 
0.094016 -3.404841 1.229509 
0.815953 -3.375023 1.191086 
1.668380 -1.173966 -1.604046 
-0.493396 2.510553 -0.029689 
0.439421 2.621670 0.269456 
2.100955 -1.633151 -1.231147 
-3.093098 -3.880662 1.938174 
-2.143080 -4.063514 2.020238 
-2.216593 -4.471748 2.712283 
0.224640 -1.922017 -0.755058 
-2.824431 4.040116 2.262314 
-1.218279 -2.879865 0.608976 
2.299219 -2.710504 0.243909 
0.341449 -0.780702 -2.534096 
-2.192726 -4.100157 2.278198 
1.158622 -2.731891 0.339151 
-0.442721 -0.160917 -3.276928 
-1.735141 2.476918 -0.033424 
-0.890139 0.653444 -2.843846 
-0.200501 -1.008873 -2.168969 
0.921113 0.800402 -2.656641 
-2.764669 -4.471356 2.692943 
0.016400 -0.565152 -2.725295 
-1.603834 2.381600 -0.232652 
-1.763433 4.006588 2.128842 
-2.065664 -3.345237 0.935042 
1.522949 -2.563701 0.101179 
-2.403782 -2.150851 -0.496918 
-1.132071 1.338458 -1.585644 
-2.208807 -3.319439 1.151661 
1.182057 0.586649 -3.022889 
-1.095070 -3.289096 0.571440 
3.161086 2.024822 -0.766498 
0.904866 0.635978 -2.794011 
-2.273937 2.863314 0.507786 
-2.232474 2.461415 -0.157633 
2.100994 1.424274 -1.671996 
-3.054271 -3.937279 2.015894 
-0.016506 1.807685 -1.104612 
-0.802656 3.192989 1.283682 
0.578921 -2.629628 0.275853 
-1.739054 -3.844706 1.841484 
2.279551 1.536345 -1.554427 
0.882945 -2.351767 -0.251229 
-0.447964 -0.129901 -3.323319 
-0.126576 -1.475250 -1.433248 
0.414317 3.090864 0.992103 
0.328970 -2.527920 0.050813 
2.658139 -2.448349 -0.112107 
-0.341061 -1.391123 -1.557673 
-2.564018 -3.523940 1.437038 
1.116826 0.991457 -2.380904 
-0.777977 -0.350476 -3.011438 
-0.330798 -1.381236 -1.410136 
1.692441 -1.038083 -2.134611 
2.736573 2.907830 0.455552 
-1.138461 -2.205945 -0.407175 
-1.064029 -3.013855 0.941801 
-1.209522 1.869050 -1.014526 
1.746338 1.454419 -1.313746 
-0.211735 1.650536 -1.443970 
-3.126624 3.175929 0.959386 
0.674430 -3.349302 1.163437 
-2.654458 -4.165600 2.309369 
-1.939476 3.715647 1.745765 
-3.285314 4.316273 2.199500 
3.289227 -2.363454 -0.240703 
-0.062110 1.897893 -0.997260 
-2.726052 -3.907875 1.914370 
-2.599264 -4.107522 2.661631 
0.384810 -2.386781 -0.147654 
-1.351010 -2.309406 -0.091723 
-0.281361 -3.105250 0.815164 
0.915706 -1.781239 -0.688161 
1.729741 2.971221 0.636723 
-1.129315 1.117613 -2.176669 
2.331148 1.541952 -1.546058 
-0.907474 1.742315 -0.892479 
0.965993 0.960141 -2.421287 
1.245869 0.967614 -2.456781 
-2.465056 2.831157 0.577799 
-1.983295 -2.234607 -0.304145 
0.083145 -0.799789 -2.387343 
-1.233511 3.863438 1.936745 
-1.163149 -1.482469 -1.430008 
-2.359970 2.612494 0.112086 
-1.977967 -4.281194 2.422365 
1.353711 -1.535487 -1.361717 
0.713602 1.043808 -2.251931 
-2.284973 2.007844 -0.808094 
3.162089 1.556852 -1.535131 
-1.161983 1.161560 -2.088429 
-3.289278 3.921991 2.010429 
-1.794897 -2.443062 -0.072400 
-0.252839 -2.407223 -0.119866 
-0.431722 -1.650880 -1.189631 
0.432101 2.884377 0.505711 
2.951951 1.964114 -0.989158 
-0.803495 2.566122 0.077269 
-0.042917 0.698188 -2.780587 
-3.219933 4.423675 2.833863 
0.908436 1.368487 -1.785161 
-0.061437 -1.465574 -1.571792 
-1.666913 2.389863 -0.101239 
0.089580 -1.152086 -2.180829 
2.274723 3.154823 0.831002 
-0.777596 2.429731 0.226180 
-1.449013 -1.852948 -0.904085 
-1.850834 1.653420 -1.341009 
0.275479 -0.608497 -2.656815 
0.927192 -3.129405 0.866190 
-0.869604 1.085207 -2.205229 
-0.419210 0.502429 -3.112219 
2.013501 -1.141888 -1.945269 
0.090657 -3.217640 0.968512 
-1.490773 1.557284 -1.481046 
-0.470051 -2.428684 0.060199 
1.881957 -3.123018 0.827599 
-2.335220 -2.018785 -0.670792 
0.447191 1.475278 -1.589602 
-0.713541 -0.608801 -2.757735 
0.635012 -1.296375 -1.872450 
0.969673 -2.545424 0.075857 
2.011240 1.591401 -1.410379 
2.707216 2.814554 0.369651 
1.818968 -1.694923 -1.004330 
1.968437 1.695365 -1.027910 
0.637244 2.772676 0.626169 
-0.915936 -3.344508 1.130740 
1.070852 -0.862868 -2.291795 
-2.905056 4.372141 2.756124 
-1.199817 2.216872 -0.470020 
-2.317790 4.330896 2.664067 
2.461487 2.053403 -0.761312 
-2.643710 3.564218 1.745821 
-1.772653 -3.648428 1.452799 
-1.805728 2.194479 -0.530508 
-0.279830 -2.234014 -0.370357 
0.401675 2.413466 -0.177507 
0.051527 -3.237297 0.962141 
-1.464048 -1.330611 -1.642383 
0.622483 1.033030 -2.262947 
2.286423 -2.239774 -0.415725 
-1.556002 -1.773061 -1.019822 
0.917483 -1.325651 -1.650270 
1.383884 -2.946837 0.068341 
-2.609808 -4.041927 2.141150 
1.012361 -1.547840 -1.398361 
3.071444 1.956545 -0.929750 
-3.130365 2.795223 0.380979 
-2.359211 1.737116 -1.214143 
-1.770143 -2.465064 -0.532506 
0.861462 -2.550932 0.104179 
-1.636026 -3.242826 1.254458 
-0.248731 2.020212 -0.187864 
-0.760743 -2.825183 0.445241 
-1.673559 3.732167 1.758060 
2.002034 -1.765961 -1.049751 
0.742716 0.843882 -2.594440 
0.111047 1.238536 -2.003915 
1.075188 -2.418359 -0.106491 
-1.601602 3.545586 1.476584 
-2.337919 3.240912 1.063020 
0.289142 1.609243 -1.407247 
3.132283 -2.541185 0.003108 
-2.040225 2.352804 -0.279943 
0.344347 2.018876 -0.774971 
0.782988 -2.648651 0.215813 
2.983627 1.617568 -1.448160 
-0.738753 1.241192 -1.951918 
-2.515812 3.583046 1.639415 
1.348207 2.956541 0.653804 
-1.520203 2.152076 -0.488806 
-1.589248 3.194111 0.963852 
-2.657325 4.527096 2.921037 
1.350945 1.738343 -1.232567 
-2.204809 1.679038 -1.297012 
-0.484747 2.708317 0.304044 
-3.198169 3.768661 1.787606 
-2.542335 -4.005864 2.088382 
-2.324270 2.746121 0.668214 
-0.427357 1.932109 -0.414004 
1.767329 1.979621 -0.795656 
2.967296 1.691658 -1.325447 
-0.770305 -1.158705 -1.878392 
-0.927315 1.197931 -1.968406 
2.225597 1.509917 -1.246629 
2.156939 -1.887735 -0.872945 
-0.217146 3.008067 0.742507 
2.048308 -1.604693 -1.272366 
-1.631846 2.933546 0.822695 
-1.185344 1.347924 -1.797012 
-0.386664 1.182896 -2.057842 
1.013281 -0.687942 -2.565316 
-3.174467 -3.966403 2.044228 
1.379090 -2.967559 0.286270 
1.803958 1.498109 -1.458539 
1.977777 2.376992 -0.239977 
0.633682 -1.370446 -1.671024 
1.692927 2.585943 0.079502 
-1.502745 1.038420 -2.337329 
-2.266814 1.788155 -1.105605 
1.435823 -1.635066 -1.220172 
0.367581 0.941894 -2.664253 
-1.497880 -3.315958 1.043936 
1.893479 -1.230085 -1.550479 
-1.084167 -3.180532 0.657144 
1.390699 -2.376709 -0.106520 
-0.103878 0.232755 -3.356698 
-2.296707 -1.531411 -1.335407 
2.813458 -1.513709 -1.457915 
-1.380475 2.079775 -0.444175 
1.356039 -2.166852 -0.673985 
1.103050 -2.014306 -0.802793 
3.067738 -2.560285 0.027733 
2.896466 1.953540 -0.912389 
-1.184063 1.689409 -1.369627 
-1.151407 -2.754012 0.370550 
-3.372380 -4.121614 2.259731 
2.024452 -1.701968 -1.149104 
-0.146826 -1.792286 -0.992491 
3.020719 2.604391 0.022887 
3.000929 1.558511 -1.542446 
1.901113 -1.647287 -1.218417 
-0.792302 -2.497352 0.005338 
0.713133 -2.147956 -0.491321 
-3.092803 -3.829669 1.866676 
0.068959 -0.967560 -2.146664 
-1.611864 -2.663130 0.234756 
2.560838 2.041839 -0.818560 
-0.905704 -3.063259 0.762847 
0.492127 -1.973168 -0.735273 
0.390217 3.571648 1.287728 
0.213334 0.626980 -2.795142 
0.307221 0.869261 -2.627001 
3.500207 -2.007888 -0.736858 
-0.006997 0.592524 -2.927576 
1.465125 2.984264 0.639237 
1.948192 -1.762788 -1.056632 
2.422030 -2.553982 0.104929 
-1.405845 1.814302 -1.013704 
0.534816 1.036867 -2.277436 
1.358671 -2.390377 0.030912 
1.539186 1.379029 -1.409839 
1.789106 1.551178 -1.437927 
3.142998 1.533864 -1.570719 
-0.481590 -0.531958 -2.772997 
-2.407769 -2.769105 0.679931 
-2.042079 3.360508 0.858425 
0.619825 0.768625 -2.607683 
0.573488 0.881231 -2.441858 
1.571050 3.012007 0.668979 
-1.094316 -0.752269 -2.457355 
-0.451699 3.115051 0.850877 
1.109219 2.499948 -0.021892 
-2.962009 4.432817 2.845053 
0.807190 -2.522713 0.041238 
-0.038276 1.751036 -1.188563 
-2.879681 -3.813364 2.017951 
0.522790 -3.267648 1.049228 
-2.077608 -4.140213 2.251445 
0.613994 2.135097 -0.075801 
-0.877160 3.528605 1.436788 
-2.172992 1.713730 -1.251652 
1.972619 -1.660941 -1.195890 
-0.858980 -1.734931 -1.161391 
-0.193279 -0.996708 -2.272986 
0.402981 0.799456 -2.664521 
0.697728 -1.430604 -1.501973 
1.670556 1.050702 -2.188316 
3.068209 1.621345 -1.443874 
2.483014 2.826348 0.392674 
-0.701774 1.872931 -0.778301 
2.406183 -1.295464 -1.663143 
-1.220708 -1.339100 -1.630304 
-2.905348 -3.768136 1.773578 
-0.904283 1.534590 -1.512638 
2.510370 -1.540542 -1.385441 
1.978411 -1.648025 -0.962321 
3.110799 2.645193 0.104303 
2.419263 2.854165 0.437728 
-2.380555 2.363130 -0.268583 
-1.137080 -2.658293 0.228299 
-0.229836 2.644075 0.161491 
-1.019001 1.060740 -2.240139 
-2.734632 -2.294289 -0.252166 
1.216552 2.454268 -0.092657 
2.488919 1.688197 -1.021005 
-1.901639 1.292994 -1.911096 
0.595269 0.858621 -2.588494 
-3.160237 4.460996 2.878059 
-0.073241 -1.337287 -1.631610 
-2.130985 -3.443907 1.347630 
-0.515698 -0.556869 -2.701464 
-1.699627 -2.104151 -0.651066 
2.648265 -1.895920 -0.878578 
-0.721939 3.645270 1.356018 
1.645310 -1.065497 -2.061368 
-1.047400 -1.264207 -1.785295 
-0.512616 -1.204378 -1.818709 
1.230288 -1.805362 -0.973800 
-0.495048 2.392526 -0.070756 
-2.875299 -3.110936 0.859696 
0.164262 2.831634 0.431127 
1.189941 -1.959454 -0.749746 
1.732491 -1.871141 -0.776832 
1.526054 1.595407 -1.440860 
2.911932 -2.134159 -0.508043 
1.697791 1.189752 -2.279747 
-0.540190 -0.215560 -3.206582 
1.989405 -2.576867 0.254767 
-2.166806 -3.023229 0.778496 
-2.057617 -3.493572 1.384694 
-2.537160 -3.588079 1.304973 
0.099940 0.511408 -2.950274 
0.413604 -1.309843 -1.758975 
-0.729271 -0.360678 -2.993522 
-2.401303 2.665890 0.196525 
0.744567 1.270468 -2.370094 
1.104972 -0.494072 -2.857686 
-0.403110 -0.341318 -3.025345 
-0.870391 0.717386 -2.691342 
-2.437346 -2.752441 0.259433 
0.903541 1.854636 -0.550725 
-0.824835 1.590691 -1.425729 
0.209077 -2.453151 -0.050100 
0.202244 0.740640 -2.620970 
-1.108732 2.336385 0.145545 
-1.139936 3.866234 1.937497 
-0.934385 -0.419263 -2.934784 
-1.048259 1.355649 -1.992613 
-0.078650 0.649500 -2.894166 
2.581631 2.650775 0.197119 
0.480704 3.541196 1.475452 
2.586176 1.598241 -1.463989 
2.812681 2.580813 0.022481 
-1.409086 2.089259 -0.665213 
2.696015 -2.034291 -0.678771 
1.789471 1.476586 -1.663772 
1.213678 -2.871584 0.516573 
0.398359 -3.508089 1.368161 
1.075631 1.553507 -1.490365 
3.347931 2.143566 -0.648968 
0.206691 -3.221262 0.967734 
-1.184889 1.290421 -1.889630 
-2.876507 3.224639 1.038443 
1.209140 2.671894 0.240039 
-2.708505 3.052703 0.786521 
3.442699 2.125119 -0.644205 
-0.526233 -0.398589 -2.925027 
-0.149496 1.357730 -1.789734 
-1.585077 -2.377226 -0.168156 
0.231789 1.869602 -1.015463 
0.094849 -0.942175 -2.188523 
-1.148847 2.533470 0.011245 
0.358881 2.840523 0.364663 
0.536118 0.751054 -2.800000 
-1.391921 1.839810 -1.052275 
-1.766211 2.709593 0.266981 
3.498180 2.146774 -0.644878 
2.182684 -1.683811 -1.171811 
0.017495 1.335839 -1.822248 
2.238251 1.590907 -1.470798 
0.087156 -3.130256 1.038354 
0.231877 1.789530 -1.135503 
-0.477082 -2.942638 0.601330 
-0.000718 -1.626871 -1.220339 
3.404637 2.032135 -0.657607 
0.195479 1.837609 -1.061731 
1.188647 1.572940 -1.130432 
-0.992741 1.967618 -0.635404 
2.771958 -1.936955 -0.835785 
2.686449 2.073374 -0.742488 
-0.521982 1.796263 -1.131718 
-1.464857 -0.951167 -2.183035 
0.346915 -3.283391 1.059604 
-2.128321 4.078822 2.204170 
1.004807 2.666778 0.196899 
-2.951823 3.268765 1.427862 
0.419682 -3.185047 0.428480 
-0.726240 -2.861835 0.488937 
1.757316 1.980699 -0.845958 
-2.588918 3.392576 1.306623 
-2.717999 -3.516503 1.380898 
1.310619 3.235058 0.879745 
0.705102 3.340980 1.262711 
-0.359607 -0.842920 -2.327792 
-0.874395 -0.331094 -3.018378 
-2.360929 -4.530478 2.652176 
1.047819 2.832334 0.476684 
1.461948 -0.650026 -2.650788 
-1.016958 2.929923 0.678951 
-0.993626 1.111039 -2.120196 
-0.579051 0.482034 -3.190113 
-1.316695 2.997872 0.663052 
0.171095 -3.315927 1.099791 
-1.199873 1.479596 -1.444421 
1.121190 -1.309013 -1.676844 
-0.887642 1.204098 -2.024461 
-1.291520 2.181444 -0.397771 
-1.021963 1.095214 -2.161476 
2.251058 1.781907 -1.172651 
0.731075 2.792686 0.374009 
-3.243118 -3.216173 0.998586 
0.201816 3.187907 0.994874 
-2.631920 4.412771 2.802927 
2.869895 -2.032474 -0.694990 
-2.099993 1.465057 -1.635559 
-3.062214 3.094692 0.843941 
-1.280855 -2.090125 -0.571091 
-1.987852 -2.235528 -0.303294 
1.017413 3.340312 1.181444 
1.180417 -2.986767 0.664316 
1.868513 2.139520 -0.463323 
3.029300 -1.784507 -1.050887 
-0.141524 -0.976971 -1.860681 
-1.010550 1.170191 -2.062501 
2.202730 -1.139038 -1.951066 
-1.014640 -1.410540 -1.531136 
0.266505 -0.782604 -2.413270 
0.781527 -0.677444 -2.562276 
-1.447005 -2.253959 -0.417691 
-0.057121 -1.289922 -1.699842 
2.201043 2.719903 0.253599 
1.460676 0.947372 -2.340993 
-3.304426 4.057466 2.286900 
-2.265530 4.504954 2.893194 
1.690032 -2.524392 0.045641 
0.287385 3.281713 1.271275 
1.169018 -2.670278 0.248184 
-1.192561 1.358659 -1.740171 
1.693377 -1.934047 -0.800504 
1.909565 3.010069 0.861466 
2.536021 1.237797 -1.998368 
0.651608 -1.132222 -1.905650 
2.658657 -1.508297 -1.152035 
-1.668059 1.870095 -1.068548 
1.023106 -2.645621 0.213568 
-2.109106 -3.801176 1.879901 
3.260051 -1.470810 -1.464628 
1.803173 1.053533 -2.098128 
-2.287908 -4.079678 2.185707 
-1.968875 -2.428979 -0.453427 
-0.518650 -0.134196 -3.304886 
1.657631 3.336075 1.132544 
1.292827 -2.494459 0.003039 
-0.144430 2.994673 0.664980 
-0.012457 3.303476 1.121078 
1.213199 -1.436721 -1.500216 
1.366681 -0.853136 -2.348593 
2.273532 1.393116 -1.775559 
-1.083713 1.774983 -1.156791 
-1.386293 3.678322 1.668070 
-2.399659 -3.503063 1.686100 
-0.907220 1.115399 -2.109967 
-1.164326 3.123421 0.898920 
-2.280915 -3.133849 0.475389 
-2.387183 -3.355222 1.192608 
0.793983 -2.335484 -0.057539 
-1.273190 1.193165 -1.990535 
-2.288092 2.620683 0.541236 
-1.275578 3.224189 1.143795 
0.286211 -2.332482 0.136566 
-0.987670 -0.801244 -2.401546 
3.215434 1.799408 -1.169519 
-0.997863 2.738307 0.791661 
1.089520 1.934271 -0.526050 
2.964438 2.219629 -0.527276 
1.229855 3.498812 1.396408 
-2.406722 -4.452830 2.693780 
-0.864251 1.154138 -1.798257 
-0.170424 -0.101139 -3.426718 
2.518123 2.687633 0.192665 
0.849539 -0.412351 -2.934561 
3.033152 2.234587 -0.496952 
2.581342 -1.268659 -1.776089 
-2.110675 3.647113 1.650226 
0.318005 3.325536 1.140186 
-1.005338 -1.594804 -1.266150 
0.077641 -0.850738 -2.312458 
3.036852 2.464829 -0.149002 
-0.890852 1.913993 -0.928521 
0.126202 3.351187 0.889769 
0.596441 -2.388791 -0.146877 
-2.318434 2.974380 0.669572 
1.867105 2.197939 -0.462440 
0.441519 -2.045920 -0.633660 
-1.558092 -2.790973 0.153010 
1.124313 2.736403 0.375164 
-0.285269 2.195897 0.175500 
1.662787 -0.960974 -2.361991 
1.163293 0.663000 -2.899766 
-3.180408 -4.189163 2.363954 
1.626552 -1.722896 -1.098989 
-0.175698 -1.435606 -1.603810 
-0.117195 -1.854836 -0.907169 
-0.350850 0.424924 -3.206217 
-0.552402 -3.431614 1.035474 
-2.240844 -3.283808 1.092791 
3.069441 -2.170133 -0.497623 
-1.866085 3.961544 1.972456 
-2.198502 2.909486 0.823225 
0.250385 -0.292120 -3.140616 
0.647428 0.601893 -3.017190 
3.351213 -1.610369 -1.298628 
-1.772068 -4.008889 2.080650 
-1.247483 -1.608251 -1.693147 
-1.392397 -3.675784 1.596297 
-0.624358 0.011590 -3.548120 
-2.270645 2.824624 0.440278 
-0.860369 -1.965375 -0.744770 
-3.050027 -2.562042 0.086292 
-1.760406 -2.216254 -0.143501 
-1.680474 2.347258 -0.296472 
-3.020105 -3.080711 0.814809 
-2.181127 -2.084763 -0.477552 
1.378247 3.269618 1.212026 
0.044935 0.428259 -3.205834 
-1.324500 -3.492546 1.341068 
1.270140 2.620337 0.225277 
2.850976 2.254115 -0.455828 
2.632282 2.552018 0.005190 
-2.235094 -3.271175 1.093178 
2.566755 -2.077023 -0.612968 
1.659418 1.072098 -2.272978 
-1.731470 3.538879 1.721188 
-1.766846 -3.741519 1.699385 
-1.690574 2.318450 -0.294390 
0.725312 -1.429109 -1.288769 
-0.113816 2.593215 0.089672 
-1.355929 2.069026 -0.694813 
-1.265905 3.620613 1.573719 
1.327190 2.685939 0.233292 
2.465471 2.172668 -0.662555 
2.930965 1.944143 -0.977190 
1.214036 3.256215 1.201815 
2.241910 2.508499 -0.055923 
-0.166309 -0.569685 -2.713857 
-0.211378 -0.034772 -3.515557 
0.386033 2.119200 -0.632400 
-0.776939 -2.947617 0.471812 
-1.802728 3.829958 1.907785 
1.910872 1.874646 -0.721284 
1.614144 3.298879 1.283669 
-0.294836 -2.218060 -0.386960 
1.903093 1.143081 -2.170568 
0.825737 -2.845963 0.659901 
2.508329 1.404608 -1.727250 
1.076491 -2.246101 -0.146639 
2.815962 2.740191 0.252883 
-0.960290 1.384889 -1.739969 
-2.711425 -2.419259 -0.110375 
3.293231 -2.266769 -0.399345 
-0.297854 0.370193 -3.274115 
0.222131 -1.958560 -0.753550 
3.232332 1.760399 -1.235518 
-1.194516 1.774389 -1.082783 
-2.432115 -3.607500 1.603712 
-3.029256 -4.149762 2.103455 
-1.446592 -2.018360 -0.677711 
-3.297849 3.446924 1.366827 
-0.895802 1.117844 -2.154808 
0.568159 1.076312 -2.249234 
2.476949 3.073614 0.738700 
-0.582861 3.342678 1.169637 
2.282972 -2.309270 -0.275073 
2.692730 -1.595787 -1.305145 
-0.418624 -0.485720 -2.825809 
-2.721417 -2.282691 -0.322770 
1.759807 -1.123011 -1.972763 
1.336261 -2.896733 0.550715 
1.640300 1.138565 -2.239831 
0.147168 2.059374 -0.720334 
-0.218919 -2.270163 -0.009063 
-1.676577 2.028445 -0.763658 
2.338777 -2.801702 0.544848 
-2.240811 3.018154 0.733772 
-2.189440 -2.728818 0.028407 
0.924251 -1.778455 -0.680741 
1.287501 -1.999404 -0.395041 
1.622736 -1.794672 -0.997450 
-1.549685 -1.912560 -0.822853 
2.121814 2.299427 -0.376583 
-2.760208 3.443938 1.372622 
0.761591 -0.467858 -2.888835 
0.762236 -2.330032 -0.227767 
-1.649798 3.233165 1.050631 
2.669468 1.591752 -1.479022 
1.687626 3.018754 0.773912 
-1.167685 3.153852 1.054805 
2.582050 3.010786 0.611246 
-0.194286 1.635845 -1.126375 
2.906696 -2.498590 -0.052180 
1.750497 2.109802 -0.664961 
-2.299135 -2.319002 -0.255400 
-1.103345 1.197264 -2.031364 
-0.193652 0.756541 -2.596853 
0.408032 -2.466468 0.003298 
-2.033577 1.404648 -1.736445 
0.667997 -2.559640 0.292043 
-1.420316 3.055031 1.089135 
-3.396768 -4.065828 2.181939 
1.664405 -0.752677 -2.521492 
0.457907 3.367536 1.210956 
2.760491 -2.857560 0.435326 
0.327695 3.411060 0.956855 
3.155952 -2.442424 -0.126434 
1.072971 -2.252889 -0.338620 
0.362233 3.270893 1.066886 
2.767003 1.691263 -1.495010 
0.297151 -2.088651 -0.248020 
-3.243713 3.455965 1.329513 
-0.953277 -0.508439 -2.796565 
-0.202062 2.317783 -0.338147 
-0.142314 3.454344 1.028804 
-1.388476 1.623883 -1.576945 
-0.417007 -2.360439 0.090841 
-0.138361 2.229327 -0.012637 
0.558253 -1.042751 -2.045323 
0.467093 0.956554 -2.433616 
1.739047 2.054502 -0.528572 
0.447662 3.111334 0.609470 
0.441576 1.467663 -1.652114 
1.415303 -2.781551 0.389668 
0.734423 -2.733060 0.327283 
1.119102 2.380611 -0.259814 
0.631339 0.867893 -2.515663 
0.678117 2.431037 -0.153387 
2.530341 1.578664 -1.533608 
-1.279309 1.094545 -2.194804 
-1.162371 2.719286 0.279018 
0.822004 -2.228441 -0.297615 
-0.426245 -0.592086 -2.681111 
-1.397540 -1.035035 -2.057887 
0.402978 -1.002124 -2.102393 
-1.936921 3.064244 0.785951 
-0.677312 3.466470 1.318564 
0.208030 2.400465 0.109522 
-2.079331 -2.942524 0.617461 
1.327853 -1.402520 -1.364438 
-0.104750 0.586465 -2.933837 
-1.896996 3.782391 1.844446 
2.468869 2.566697 0.024496 
-2.463950 -2.981594 0.710712 
2.807238 -2.606385 0.105095 
-1.351870 -3.858907 1.849154 
-1.733074 1.562083 -1.483342 
-3.088398 -2.624141 0.173565 
3.457924 -1.576928 -1.349499 
1.286292 2.863246 0.515869 
-1.685065 3.426233 1.305849 
1.925238 0.916818 -2.465692 
0.571356 0.787432 -2.675297 
-0.414421 2.643420 0.170792 
2.667015 -2.757627 0.310863 
-2.785843 -3.802757 1.794482 
-2.350718 -4.043139 2.117045 
-1.033584 -1.339833 -1.606996 
1.819610 3.336795 1.150786 
-1.718265 1.490867 -1.367224 
0.133662 3.572974 1.521624 
-0.322635 2.382769 0.156689 
-0.258739 -3.112100 0.642856 
1.226769 -2.546571 0.075047 
1.528670 -2.459433 -0.046280 
-1.488987 2.220473 -0.486418 
-2.348950 2.822958 0.469697 
-2.336253 2.034498 -0.830041 
2.422979 2.063362 -0.940162 
2.989714 -2.038259 -0.678833 
-0.216871 -2.456507 -0.046857 
0.540285 -2.067616 -0.335704 
-1.713570 3.204193 1.031128 
-1.289077 -1.045439 -2.193250 
0.187269 0.664946 -2.993017 
-1.031813 1.944878 -0.858740 
-1.241008 -0.897620 -2.254300 
-0.620618 -0.470561 -2.847433 
-0.423439 -3.226233 0.834637 
-1.498787 2.519588 -0.018028 
0.377388 3.220624 0.976587 
0.980935 1.973796 -0.608125 
-1.889563 1.454437 -1.641524 
1.620632 -2.250104 -0.141697 
-1.997899 -3.054127 0.737496 
-0.994646 -2.160134 -0.442233 
-2.750945 -3.976576 1.836742 
0.329310 2.778720 0.215950 
2.943252 2.610660 0.061535 
-0.287898 0.840597 -2.951600 
2.057048 -2.589720 0.112668 
2.154754 -3.098950 0.785508 
-1.979391 -2.233799 -0.372630 
-2.114202 1.805814 -1.108781 
2.469764 -1.478224 -1.426481 
1.873607 -3.276194 1.031312 
-0.748045 0.642774 -2.864679 
-1.445191 -1.913103 -0.821684 
0.678559 -1.248375 -1.754186 
0.251993 -1.290939 -1.645400 
1.478032 1.092349 -2.618294 
-1.437752 -2.728817 0.318246 
-1.139764 -3.100573 0.811263 
-0.117696 2.208345 -0.576717 
0.891856 2.145324 -0.624034 
-0.846489 -2.321763 -0.201607 
-0.191900 2.703629 0.259528 
0.492222 2.773401 0.247486 
0.334170 -2.727840 0.324162 
1.166348 -2.640459 0.205222 
-0.671037 -2.470549 -0.030404 
1.376820 3.292970 1.202775 
0.321193 2.368127 -0.255340 
2.026697 1.827611 -0.976539 
-1.006357 -0.868340 -2.290532 
0.861013 -2.754498 0.359311 
-2.516256 2.949514 0.590290 
-1.038723 -0.733036 -2.485240 
2.806248 2.254222 -0.596403 
-1.543668 -2.571210 0.104307 
0.019381 0.932931 -2.416782 
0.498677 -1.237673 -1.773617 
0.316619 3.063294 0.937517 
-3.131844 -2.720109 0.306704 
2.533765 1.591827 -1.652965 
-1.985876 -2.231362 -0.307383 
-0.237621 3.034139 0.714841 
0.012074 0.708440 -2.919964 
0.381078 -0.776875 -2.088174 
-3.133948 -3.543390 1.572363 
1.701403 -1.769175 -0.706891 
0.964361 -2.508262 0.026195 
-2.156477 1.846419 -1.054514 
-0.542297 -2.765289 0.369555 
1.801257 1.675144 -1.101531 
1.750147 2.138804 -0.647106 
-1.729440 1.561533 -1.268392 
1.674678 -3.332942 1.064046 
2.896115 -2.547142 -0.036933 
0.921208 -2.217770 -0.387408 
-2.285213 3.502649 1.528889 
0.065731 -0.887496 -2.240653 
2.890198 -1.412855 -1.576906 
-1.844163 -1.542057 -1.350263 
-0.163502 2.377553 -0.234717 
1.701014 1.731127 -1.241009 
-0.975753 -0.793708 -2.401267 
-1.038956 2.501823 0.244797 
1.422694 -1.321754 -1.710916 
-1.759927 3.396102 1.265282 
2.785557 -2.208620 -0.483584 
1.350444 -2.265846 0.144391 
-0.242448 3.519892 1.406102 
2.907707 -1.807489 -1.008882 
-1.289948 -1.101539 -1.969159 
1.911240 -2.857743 0.532694 
-0.297614 -0.260043 -3.143503 
3.239807 -2.016419 -0.649695 
0.923453 1.414855 -1.464176 
2.476848 1.398511 -1.397462 
0.950753 -1.127831 -1.924866 
-0.758912 0.686559 -2.690715 
1.518700 -2.734104 0.107260 
-1.651868 -0.912800 -2.236047 
-2.572529 3.885843 2.159146 
-1.170386 2.563565 0.111175 
2.008353 2.025156 -0.397514 
-1.715337 3.351171 1.200918 
0.363495 1.920629 -0.798229 
2.631893 -2.667076 0.182992 
0.923222 -2.466817 -0.036112 
-2.445351 -3.996488 2.178236 
-2.643114 -1.990292 -0.727883 
1.457181 2.041487 -0.552853 
2.293499 -2.508549 -0.440655 
2.956519 -2.590034 0.131955 
-0.773583 1.460084 -1.341527 
0.526345 -0.920333 -2.221342 
-0.210159 3.319687 1.126591 
-0.249525 -2.083217 -0.995650 
0.896548 -2.372294 -0.173210 
0.328559 -1.595660 -1.030756 
0.539719 -0.819411 -2.711228 
-3.299553 3.560196 1.796158 
-1.472534 1.469647 -1.614238 
-2.685564 3.374704 1.266934 
3.084511 -1.352163 -1.617107 
-0.837022 1.854645 -0.960259 
1.387612 -2.459576 -0.395132 
0.373939 -0.575902 -2.707255 
-2.450550 2.546362 -0.030938 
-0.405515 -0.020933 -3.492331 
1.579639 -1.427152 -1.383219 
-3.179709 4.056789 2.290403 
-1.576277 1.571813 -1.465497 
-1.624401 2.324729 -0.330347 
1.510539 -2.067319 -0.606383 
0.937737 0.608934 -2.936577 
2.034088 3.197120 0.952864 
1.428194 2.782661 0.666467 
0.483027 -1.212901 -1.804614 
-2.463625 -3.956468 2.099273 
-2.068608 3.782142 1.624450 
-0.123412 -0.486240 -2.561258 
0.405783 0.728056 -2.790122 
0.122983 -2.447392 -0.060278 
-2.646424 2.557822 0.027586 
0.002352 -0.794297 -2.397914 
2.361506 2.006985 -0.648815 
0.719271 -1.168352 -1.879859 
1.897346 -2.868875 0.646831 
1.819289 -1.744320 -1.074764 
1.129915 1.914122 -0.671593 
-2.548229 -4.148101 2.029534 
3.212527 -1.898449 -0.813629 
1.794409 -1.361556 -1.426796 
-3.109474 -4.233763 2.421553 
-1.540482 -1.023047 -2.079959 
-1.053498 0.788462 -2.794162 
0.802266 -3.063773 1.174752 
-0.281868 1.869090 -1.013562 
-1.151872 -3.708875 1.633635 
1.319275 -2.312471 0.140094 
-3.196777 3.411220 1.315568 
-0.496432 -1.384771 -1.563499 
-0.892398 2.704425 0.275353 
-2.702768 -2.815640 0.445239 
1.432978 2.954624 0.740882 
-1.360749 1.013077 -2.323516 
-0.667326 -1.109382 -1.807246 
-0.342347 -0.028195 -3.476789 
1.071186 -2.098084 -0.673767 
-2.519531 -3.536231 1.672415 
0.178595 -0.332251 -3.075186 
2.452987 1.955134 -0.875842 
-1.251559 1.188514 -1.916332 
-2.879128 -2.600371 0.074938 
-2.487762 3.608939 1.610882 
-2.109252 -4.320360 2.498448 
-3.347118 3.763763 1.837236 
-1.230846 -2.378866 -0.050600 
0.743605 -0.558741 -3.047067 
-1.099619 3.238652 0.901687 
-1.603009 3.844925 1.921308 
1.275330 -2.008052 -0.750431 
-1.225496 -2.038926 -0.731547 
0.942535 -0.772414 -2.440026 
0.302355 3.094508 0.498549 
-0.628414 3.428681 1.279437 
-0.680462 -1.172955 -1.987927 
-0.648546 -1.132193 -1.920625 
0.788199 1.355997 -1.844630 
1.444355 3.273847 1.101891 
1.434528 1.100239 -2.253133 
0.134936 -0.756579 -2.605754 
0.002646 2.414079 -0.174901 
-0.022922 0.280065 -3.461373 
-0.349015 -0.194765 -3.242533 
0.450173 -1.131707 -1.918721 
0.508624 -0.489354 -2.900527 
-1.382002 -2.577600 0.505769 
-3.236953 3.487679 1.438459 
-1.259199 1.886724 -0.974429 
0.170206 -1.351709 -1.734763 
0.508546 0.855646 -2.388121 
-0.613213 0.948748 -2.413756 
0.352570 0.669581 -2.842864 
0.193963 1.817904 -1.088089 
0.036337 -0.758887 -2.440238 
2.209085 -3.105060 0.716079 
-1.636646 -2.377533 -0.167939 
0.636817 2.943329 0.720982 
1.085302 -2.067427 -0.603569 
0.486373 2.747566 0.115742 
0.429734 2.729229 0.461237 
-0.977863 1.266118 -1.929582 
1.257252 3.247955 1.231176 
-0.524037 1.125267 -2.089436 
-1.055379 1.729910 -1.219612 
-2.999323 3.838926 1.964143 
0.698566 -1.104512 -2.042146 
1.800895 1.165626 -2.034388 
0.544895 -2.161095 -0.491502 
-0.873330 3.435635 1.288299 
-0.696385 -3.135974 0.854393 
1.648696 3.049971 0.750547 
0.420400 -1.730280 -1.078073 
-0.486566 3.168597 0.921283 
2.385742 1.393364 -1.775513 
-0.704321 1.280728 -1.893574 
-1.181805 -0.847669 -2.322732 
-1.937315 1.974680 -0.849475 
2.315293 2.893082 0.500183 
-2.653805 3.130674 0.897286 
-0.216801 1.580644 -1.588635 
-2.552455 -1.888476 -0.894283 
2.574732 -2.179043 -0.475359 
0.892786 1.564037 -1.445959 
2.233227 3.112492 0.805907 
-0.918154 -1.473929 -1.443158 
1.431390 3.454363 1.358788 
-0.098997 -0.753647 -2.455961 
-0.870055 -0.841723 -2.290498 
-2.327781 -1.573677 -1.305928 
-1.532111 -3.256684 1.026254 
-0.523630 0.497978 -3.099741 
1.025462 -3.434582 1.325552 
-0.761694 0.265964 -3.545146 
0.512784 -2.974913 0.611296 
1.902951 -1.440139 -1.508753 
-0.029844 -1.640185 -1.148854 
1.433262 1.688832 -1.303323 
-2.525381 3.046142 0.774242 
-1.188175 -1.939290 -0.782085 
2.863458 -2.682257 0.183535 
2.743176 2.386053 -0.256540 
-0.717821 -0.153004 -3.280759 
-1.247568 -0.969016 -2.133167 
-1.415859 -1.415054 -1.522462 
-1.340906 -1.736038 -1.072170 
-2.504693 3.675543 1.679301 
-1.098718 2.435333 0.131985 
-0.137927 2.898574 0.289767 
2.161182 1.236449 -2.066863 
-0.530391 -0.467027 -2.854742 
0.875163 -1.292215 -1.334965 
-0.868706 -2.815990 0.356181 
0.056937 1.148730 -2.093947 
2.347216 -1.798055 -0.877680 
1.482805 -1.884707 -0.958717 
1.486127 -1.669631 -0.729790 
2.547355 -2.974105 0.598839 
0.428609 -2.118227 -0.187789 
2.231298 -1.695393 -1.074985 
1.234133 0.978205 -2.394638 
1.138134 2.832138 0.467702 
1.045186 2.206166 0.159242 
-1.290285 -0.929525 -2.208280 
1.851345 -2.672039 0.254811 
2.853100 -1.579366 -1.414793 
-2.499174 2.970567 0.668549 
-0.951832 1.858867 -1.027795 
0.489166 -1.180439 -1.853959 
2.363558 -2.634351 0.303005 
1.426744 -0.688190 -2.595923 
-1.258760 -2.921227 0.576618 
2.332491 1.562891 -1.464039 
-2.508229 -2.647483 0.225124 
-1.680283 3.771582 1.814462 
-1.373115 2.740133 0.327567 
1.211959 -2.343016 -0.067196 
-1.335933 -1.330042 -1.642662 
0.495882 1.602728 -1.401302 
2.387754 -2.226854 -0.574542 
-0.517642 1.028412 -2.294444 
0.864802 0.889234 -2.588711 
-0.376555 -1.671504 -1.159494 
-0.154575 1.675068 -1.566776 
2.476457 -2.566165 0.166800 
1.366232 1.983554 -0.851691 
-1.754131 -1.923464 -0.807671 
-0.324172 2.063433 -0.158277 
3.308846 -2.061480 -0.656099 
-0.957685 1.193113 -2.041492 
0.986637 -0.669320 -2.386564 
1.817075 2.380984 -0.186633 
-0.150225 0.396676 -3.243334 
0.609454 3.464006 1.402268 
1.616423 3.414927 1.237796 
-1.009064 -1.788020 -0.998602 
-1.309985 -2.984990 0.757227 
-1.063364 1.512619 -1.407527 
-2.101690 4.156488 2.637482 
0.054240 1.682429 -1.096645 
-1.738356 1.199180 -2.025392 
-1.381931 0.883740 -2.529791 
1.244481 1.571559 -1.137952 
0.495008 -3.420833 1.258367 
1.438099 -2.725066 0.188903 
0.322071 1.948810 -0.891623 
-0.648867 -1.251810 -1.754624 
-1.048813 1.660849 -1.410360 
-1.009717 1.502378 -1.561417 
-2.584016 -2.677349 0.256849 
-1.253529 -2.304844 -0.049462 
-1.688292 -2.118511 -0.531393 
-0.539198 -1.942127 -0.775835 
2.186354 3.200809 0.874375 
-0.046305 -0.255123 -3.183086 
1.449418 1.169820 -2.086776 
-0.164591 -1.808168 -0.966687 
1.106871 -2.384677 0.093947 
0.437044 2.511847 0.363395 
-0.339308 -1.316824 -2.091635 
1.572888 2.897631 0.536632 
2.047530 1.663166 -1.353142 
0.537512 -3.306561 0.960688 
2.205298 -1.839112 -1.071038 
1.740911 -2.505850 0.022006 
0.754562 2.250882 -0.416837 
-2.360975 -1.614935 -1.249348 
-0.231451 2.666843 0.196307 
1.626586 2.703787 0.267569 
0.953335 -2.669314 0.267008 
0.115440 1.825380 -1.088337 
1.194144 -3.440804 1.264622 
1.238560 -2.593225 -0.115513 
2.147937 -2.411379 -0.127201 
-0.047043 -1.672705 -1.125109 
0.557065 -3.304032 1.096198 
0.034893 0.810959 -2.478100 
-0.714609 1.750530 -0.921294 
-1.545189 1.388066 -1.736703 
2.836492 -1.954225 -0.803830 
1.194509 -2.624160 -0.108566 
-1.055114 1.598595 -1.278561 
-1.450348 3.960718 2.065575 
2.518348 -1.420334 -1.457192 
-0.252683 -2.499964 0.073711 
0.957617 -1.317074 -1.749732 
-1.472852 2.081971 -0.681963 
0.876959 -1.735171 -0.703101 
-1.739476 2.391938 -0.098687 
1.962403 -1.965248 -0.975828 
0.590692 -1.245564 -1.931331 
2.577134 1.537275 -1.560400 
1.117980 2.880221 0.636346 
-0.163065 -1.274626 -2.155359 
2.512415 -1.560457 -1.346104 
-2.672593 -2.027947 -0.673857 
-1.002493 1.924783 -0.935466 
-1.073731 2.820836 0.486528 
1.293885 1.917589 -0.949022 
1.174232 -0.607570 -2.692546 
1.652375 1.369024 -1.803406 
-1.266791 -3.649153 1.554201 
-0.086637 -3.224301 0.973148 
-2.452681 3.570416 1.499232 
2.723635 1.795732 -1.167244 
1.920441 -2.541771 0.245903 
-1.463824 3.689477 1.685239 
-2.652042 -3.747134 1.965068 
2.826376 1.360936 -1.845805 
-1.723276 2.760096 0.395883 
1.214534 -2.125430 -0.522673 
-1.041319 1.111489 -2.161434 
0.030626 -1.647945 -1.070228 
0.953089 -1.734005 -0.918104 
-1.770709 3.722648 1.746708 
1.421874 2.391725 -0.064310 
0.412476 1.807623 -1.092672 
1.148854 -2.101706 -0.538603 
1.877404 1.929737 -0.816676 
0.994547 2.754901 0.336474 
-0.696178 -1.219242 -1.779623 
-0.728705 0.968432 -1.736241 
0.212176 1.845725 -1.022992 
-1.778579 -1.534843 -1.353428 
-0.850552 1.709366 -1.203142 
-2.145050 -3.106381 0.424014 
0.322537 2.701862 0.250625 
-1.755733 1.238296 -1.927262 
-0.041970 -1.688096 -1.135139 
1.031176 1.573181 -1.193428 
-2.913412 -3.852766 1.912823 
-2.312948 2.858288 0.697184 
-0.003591 -2.790592 0.188049 
1.509976 -2.524970 0.042293 
2.716135 1.546415 -1.551206 
-3.017191 3.136295 0.909594 
-2.433252 3.057759 0.796047 
1.140886 -1.980745 -0.728520 
2.205040 -1.703599 -1.139799 
0.036299 1.357287 -1.980994 
-3.490144 -4.099714 2.228686 
0.029552 1.201439 -2.175124 
-2.551810 -2.654481 0.512960 
-1.143836 1.123426 -2.106963 
1.389329 -1.661257 -1.182180 
-1.248416 -2.335767 0.016195 
0.732030 3.396508 1.248927 
1.102167 1.834689 -1.264282 
1.478738 2.560206 0.157793 
-2.218144 -1.687147 -1.141426 
0.955365 3.068758 0.953509 
2.280099 -2.258470 -0.375745 
-0.860452 -2.845422 0.450969 
-2.694138 -3.486151 1.385600 
-2.013328 4.091878 2.267084 
-1.639343 -1.148908 -1.902799 
0.339149 -1.243168 -1.824888 
-2.661214 3.260896 0.632382 
0.025650 0.321521 -3.412642 
-0.711492 1.743145 -1.195947 
-1.039996 1.979333 -0.848351 
0.324449 -3.352890 1.157979 
-2.416270 3.254426 1.673916 
-0.726837 -0.313388 -3.064825 
-2.583229 3.222121 1.641966 
-2.365577 -4.325493 2.521851 
2.496311 -1.940052 -0.815310 
-0.580746 -1.074766 -2.002049 
0.218406 -1.219108 -1.536905 
-0.106812 0.302456 -3.413749 
0.047984 0.222878 -3.274822 
2.638738 2.105539 -0.688064 
0.434350 -3.089896 0.796436 
1.202437 -0.680934 -2.587264 
1.747687 2.000093 -0.791290 
-1.231522 3.100188 0.811469 
-0.993723 1.470386 -1.620412 
-1.278585 2.882184 0.602714 
0.790427 -1.469492 -1.447218 
-1.266192 2.170332 -0.397617 
-0.818034 -3.344853 1.129704 
-0.347959 0.374691 -3.314360 
0.687100 2.564538 0.173608 
-2.045432 -2.052080 -0.623718 
2.923903 1.865472 -0.966092 
-0.379798 0.813241 -2.623395 
1.671426 -1.623351 -1.238648 
-1.850448 3.517977 1.449945 
1.408455 -0.486192 -2.851769 
2.155058 -1.603953 -1.282555 
0.591339 -1.000442 -2.113390 
-1.378710 -2.964797 0.701719 
1.491177 -2.544205 0.207588 
1.908520 -1.072880 -2.048599 
0.730411 -3.173699 0.915817 
2.516000 1.819368 -1.119896 
-0.384846 -0.831243 -2.355132 
1.656859 1.863458 -1.120304 
1.444424 -2.496645 0.187220 
-1.718185 -3.792977 1.764396 
0.272638 3.041440 0.726559 
0.539306 -1.261110 -1.742903 
-1.984740 3.052565 0.864350 
1.183788 2.957511 0.700576 
1.688840 3.121730 0.854281 
-0.922937 3.262491 1.288169 
2.504364 2.808319 0.366703 
0.211852 -3.465816 1.312871 
-2.736737 3.780463 2.072244 
1.121225 2.853804 0.637875 
0.295547 -1.896053 -0.838704 
-1.487915 3.339720 1.169354 
1.504271 -1.686037 -1.264189 
-2.053634 -2.139868 -0.413126 
0.666391 -0.784049 -2.419802 
-1.936990 -2.701243 0.525223 
0.547718 3.341970 1.113689 
-1.032142 1.510050 -1.457757 
1.197958 -2.449033 -0.038684 
-0.683429 1.282473 -1.900823 
0.180398 3.010699 0.696422 
1.390024 -3.289918 1.063188 
-2.376997 1.972193 -0.857100 
2.408121 1.872071 -0.862310 
1.552640 -1.637005 -1.051228 
-0.276061 -0.881205 -2.275215 
0.370472 -3.065016 0.764164 
3.131412 -2.063586 -0.650985 
-0.232082 -0.293999 -3.099264 
-1.067815 -1.647624 -1.183065 
1.055741 2.136435 -0.636128 
-1.508315 -2.010165 -0.783833 
1.898789 3.311787 1.113896 
-2.677488 4.502106 2.957128 
2.695271 2.696965 0.197685 
-1.299124 -2.918768 1.048753 
2.012163 -1.849548 -0.915095 
0.884865 -1.294173 -1.339905 
-0.702577 -0.750842 -2.457144 
-2.908378 2.936208 0.959335 
-0.134629 1.425721 -1.696041 
1.726711 -2.399694 -0.138436 
2.482579 -2.473263 -0.054445 
-0.997597 1.940405 -0.895339 
1.578584 3.295518 1.041592 
-1.395113 2.531612 0.265166 
0.194483 2.588933 0.084065 
0.406698 -2.575182 0.121602 
-1.613435 -2.058482 -1.113635 
1.111558 -3.147548 0.876434 
2.040550 -1.074687 -2.038724 
0.101092 2.962169 0.721705 
