-1.907598 2.700422 0.253394 
-0.182669 1.630881 -1.149653 
1.866567 2.173356 -0.442668 
-1.059778 1.400817 -1.641738 
-1.043999 2.492077 0.417731 
-1.357016 1.295637 -1.875594 
2.132272 1.350712 -1.659642 
-2.430332 4.024629 2.217436 
2.076717 1.663789 -1.319351 
1.556679 1.918771 -0.495401 
-0.714361 1.643477 -0.816618 
1.496057 3.188189 0.839869 
-0.082773 3.529250 1.437283 
0.623380 2.822347 0.379055 
0.504836 3.551476 1.485846 
1.556600 1.413594 -1.768093 
1.567354 3.174104 0.955762 
0.964496 2.122541 -0.275416 
-0.839465 2.316859 -0.336904 
-0.475375 0.741610 -2.724071 
-1.245614 1.412693 -1.664782 
-2.027042 2.499785 -0.053291 
-0.080862 0.476338 -3.142065 
-2.508860 3.400375 1.307367 
-1.077525 0.871065 -2.548172 
0.464199 1.265739 -1.957834 
-3.271618 4.160373 2.443981 
-1.853644 2.444573 -0.132753 
-1.247771 2.603622 0.090012 
-3.085009 3.924486 2.092627 
-1.248538 1.217164 -1.998886 
-2.075294 2.706487 0.264299 
-0.526474 2.324067 -0.147238 
-2.511263 3.551867 1.346769 
1.902151 1.852776 -1.055469 
0.623673 1.039382 -2.232070 
-2.888109 2.823610 0.430968 
0.143316 2.821814 0.413659 
-0.456422 2.751999 0.528235 
1.690438 1.527460 -1.543347 
2.156454 1.742506 -0.917775 
0.510777 1.783175 -1.162529 
0.580570 0.909144 -2.322592 
-2.739202 3.528344 1.486757 
0.377953 2.848852 0.446262 
-2.830950 3.255454 1.085391 
2.151127 2.414600 -0.186421 
-0.493244 2.690500 0.254534 
1.074089 1.797506 -0.947124 
0.768240 2.404411 0.019802 
1.796258 1.452620 -1.423557 
-2.813637 3.155260 0.643630 
1.229690 2.119553 -0.602975 
0.706541 2.591444 -0.021063 
-1.191280 0.936890 -2.444719 
1.661141 1.007059 -2.243517 
-1.881714 1.707855 -1.266863 
-1.805138 1.690659 -1.283642 
1.637378 2.463644 -0.095061 
0.686590 1.103227 -2.147420 
1.795008 2.083862 -0.526703 
-1.602964 2.601005 0.206206 
-1.981821 1.695760 -1.280134 
1.028231 3.080351 0.790560 
1.824295 0.856232 -2.543403 
-1.761622 3.068948 1.055461 
-0.105271 1.776071 -1.209196 
-1.023624 2.045816 -0.404927 
-0.111945 2.028178 -0.774209 
1.067572 1.237754 -2.020624 
1.765409 1.801742 -1.127053 
-1.722599 1.327691 -1.841085 
-1.562108 2.399183 0.021959 
-1.306675 2.390186 -0.079675 
-2.038462 4.380936 2.728507 
-0.723181 0.411033 -3.215621 
0.002123 2.931266 0.584131 
-1.803137 3.319032 0.958298 
2.191215 2.797082 0.365252 
1.024158 2.692327 0.281110 
-0.606260 3.199710 0.968131 
0.970342 2.480406 -0.110761 
1.282591 3.498908 1.395407 
-0.946779 1.623693 -1.378976 
-0.856187 3.283877 1.306312 
0.041474 3.132632 0.880183 
0.166735 1.643856 -1.207645 
-0.211501 3.121610 0.662438 
-1.226233 2.078115 -0.685359 
0.140043 2.746322 0.309303 
-2.326681 3.530505 1.494073 
-1.893119 4.236233 2.507107 
-0.701560 0.389308 -3.246772 
-0.202223 2.694779 -0.103478 
-0.298987 1.384132 -1.753993 
-1.047288 3.424928 1.283108 
-3.080574 3.722223 1.756607 
-0.200441 1.688568 -0.987037 
-2.471130 3.786157 2.134537 
-0.362655 1.759618 -1.189560 
-0.924340 2.320722 -0.625427 
2.394330 1.954705 -0.826278 
0.966939 0.971884 -2.410325 
-1.899108 2.170898 -0.744071 
-2.378988 3.608863 1.608800 
-0.594587 0.561732 -3.000391 
-1.572324 3.003040 0.680920 
1.717535 0.992424 -2.413636 
0.710077 2.058181 -0.698832 
1.933021 1.222507 -2.200845 
0.975829 2.820122 0.426627 
0.232730 1.625035 -1.534053 
-0.016272 2.177226 -0.435450 
-2.292000 2.725056 0.285585 
-0.061465 2.874088 0.505684 
-0.182323 0.517719 -3.050394 
-0.769411 2.297124 -0.355702 
1.596866 1.373025 -1.800565 
-1.946532 2.442002 -0.145400 
-2.051414 3.886032 2.000812 
-1.051588 0.894386 -2.516117 
-0.433482 0.674743 -2.830815 
-0.126438 2.431120 0.021825 
0.691549 2.941935 0.585440 
-2.504804 3.171230 0.961660 
1.222593 1.950539 -0.859767 
-2.728446 4.156768 2.428549 
2.650617 2.044730 -0.793356 
0.056610 2.740544 0.405664 
0.874691 0.709307 -2.811976 
-1.760423 3.344122 1.348287 
1.007885 2.029036 -0.559871 
-2.187062 4.253410 2.544709 
-0.898134 2.336136 -0.297007 
0.343895 3.565995 1.492759 
-0.551977 0.988949 -2.362600 
1.553962 3.236968 0.986964 
-1.739087 2.980747 0.651913 
0.766760 0.685265 -2.838207 
-1.356995 2.072760 -0.185810 
-2.953595 4.290927 2.635867 
2.076130 0.983483 -2.370600 
1.590093 1.485299 -1.621264 
-2.042004 3.581414 1.549547 
1.246528 1.973939 -0.546618 
2.294624 1.993790 -0.898727 
1.917167 2.021500 -0.786151 
1.902384 2.139145 -0.457159 
-1.866026 2.419387 0.303593 
0.590145 2.960003 0.186733 
1.027022 3.528827 1.445335 
1.177010 1.448160 -1.670268 
-0.364628 1.484064 -1.604792 
-0.512514 2.526755 0.094392 
1.020104 0.774398 -2.871633 
-2.507662 2.848743 0.460984 
0.389861 2.482495 0.032640 
-1.693546 2.277792 -0.395690 
0.083918 1.841401 -1.054890 
-0.658051 1.893467 -1.345071 
0.302651 0.770641 -2.533215 
-0.252400 2.167050 -0.575104 
-2.607416 3.913015 1.930671 
-0.792631 1.934084 -0.195140 
-0.192302 1.690429 -1.295915 
-0.496023 3.023654 0.752106 
-1.627650 2.953899 0.700076 
0.494550 0.996679 -2.318227 
0.868303 1.688776 -1.294261 
0.021369 1.421758 -1.488599 
0.634002 2.516799 -0.036850 
0.665532 1.794911 -1.104373 
-2.848191 3.135707 0.783426 
-1.231044 1.132573 -1.629139 
-2.122762 1.601182 -1.351939 
0.127659 3.070171 0.703663 
-3.070885 3.794722 1.748198 
-1.836136 1.453622 -1.287556 
-3.453293 4.244326 2.564645 
0.467122 2.732934 0.454277 
-0.041759 1.103773 -2.205160 
-0.882694 2.546462 0.078733 
0.829965 2.495483 0.392807 
1.990628 1.975066 -0.869642 
-0.601529 0.785866 -2.645577 
0.348596 2.767651 0.342077 
-1.250008 1.270880 -1.966628 
0.739338 2.741738 0.291912 
0.257372 2.771636 0.347991 
-2.785899 3.653144 1.784914 
-0.096700 2.965867 0.616028 
0.488701 1.356864 -1.599155 
-1.218103 2.028599 -0.759046 
-0.019338 1.109262 -2.213638 
-0.660188 2.565468 0.055395 
-0.574679 1.331532 -1.739503 
0.486627 2.798131 0.381926 
-0.792436 2.157463 -0.432109 
-0.022986 0.477773 -3.179981 
1.360005 2.013541 -0.788298 
-1.291090 1.196337 -2.041777 
1.445786 2.069804 -0.404768 
-0.400239 1.610554 -1.419280 
-1.525027 3.454693 1.337898 
1.867499 1.636998 -1.388967 
-2.627052 4.050781 2.489109 
-0.189478 1.958638 -0.890351 
0.359103 1.927492 -1.043550 
-2.828655 2.625452 0.387751 
1.818367 2.274440 -0.401792 
-0.469485 2.322761 0.027618 
-2.942556 4.156470 2.437083 
-1.829924 3.177047 0.907935 
3.182082 2.141735 -0.698902 
0.407572 2.869252 0.870419 
2.689604 2.133203 -0.886969 
0.651967 2.845364 0.271702 
-0.074036 2.245796 0.019751 
0.281153 1.008732 -2.295385 
-0.687838 3.678129 1.622817 
-1.668996 1.636245 -1.371128 
0.332529 1.674126 -1.311999 
1.769435 1.179231 -2.114778 
-1.950975 3.135577 1.112767 
-1.738924 2.928037 0.579009 
-1.151677 2.218329 -0.323464 
0.910153 2.213124 -0.021814 
-3.172117 4.343628 2.688100 
-0.389832 3.543210 1.448851 
-2.539887 4.210818 2.410254 
-3.306793 3.617732 1.898889 
1.271662 2.017735 -0.533791 
-2.472037 2.347833 -0.290850 
1.154040 2.056760 -0.584621 
-0.529350 1.479977 -1.015949 
0.472702 2.835240 0.441807 
-2.316526 2.832115 0.128677 
0.780150 2.497734 0.355407 
0.996368 1.862173 -0.640305 
-0.040546 1.830589 -0.864920 
-0.091119 1.692650 -1.293718 
0.032957 1.578008 -1.291284 
0.192761 0.859423 -2.572492 
-1.040843 2.306506 -0.338820 
0.243854 3.498657 1.412036 
-0.142984 1.481368 -1.656715 
-0.737403 1.712752 -1.125693 
-2.758536 3.859756 2.065280 
2.006475 1.860513 -0.758008 
-1.668378 3.216148 1.043802 
1.122994 1.445366 -1.608644 
-1.596755 2.450189 -0.010739 
1.207451 1.840057 -0.907745 
-1.565237 1.539778 -1.517029 
-2.349643 2.647477 0.342048 
0.249955 1.688911 -0.804683 
0.381101 2.901860 0.534067 
3.082703 2.272094 -0.442436 
-0.347024 0.665671 -2.739808 
1.581601 2.174639 -0.563645 
-0.909163 1.755190 -1.088236 
-2.187340 3.316807 1.168852 
1.014296 2.487410 0.284587 
-1.482872 2.318138 -0.341432 
1.490263 1.279498 -1.949192 
-0.150831 1.630652 -1.155998 
0.445045 3.572645 1.522571 
0.307160 1.527574 -0.867908 
2.180268 2.160802 -0.581783 
-0.683720 2.311711 -0.340881 
-2.192229 2.694617 0.577375 
0.610506 1.255784 -1.922399 
-0.884282 2.820388 0.423429 
-2.934061 3.787405 1.849311 
-2.041744 3.198565 1.101492 
-2.102992 4.283228 2.584844 
0.100291 2.216244 0.086355 
2.258544 2.607193 0.054851 
-2.220270 2.613756 0.836503 
-0.205329 2.316412 -0.185899 
0.712910 1.748008 -0.862390 
1.285050 2.180660 -0.286703 
0.408683 2.315141 -0.249937 
-0.006544 0.720297 -2.888711 
0.383407 3.530283 1.488721 
-1.937266 2.253602 -0.426273 
-2.859401 3.791968 1.779053 
-1.804813 2.390091 -0.213548 
-1.428584 1.317335 -1.856316 
-0.073476 2.397803 0.263868 
0.953303 1.467144 -1.631070 
0.355858 0.849176 -2.537914 
2.470916 1.654779 -1.379215 
-1.025111 2.261793 -0.405665 
1.593942 2.006448 -0.677235 
0.806317 2.723668 0.285327 
-0.701101 0.710652 -2.738080 
0.084456 2.703387 0.636367 
0.317597 1.273562 -1.748518 
0.631167 2.263633 -0.222108 
-2.206027 3.985595 2.153479 
-0.780960 2.344272 -0.539479 
-0.443496 2.674307 0.220767 
-2.246620 3.927891 2.072208 
1.794146 1.236614 -1.762189 
-2.666345 3.620828 1.711677 
-0.900435 1.535140 -1.607069 
0.162398 2.599056 0.364589 
0.892374 1.256449 -1.991618 
0.357925 1.740589 -1.194385 
-0.909265 1.818136 -1.105478 
2.514520 2.209869 -0.493269 
0.177356 1.723169 -1.162545 
2.413832 1.998094 -0.914169 
0.523292 1.806391 -1.134559 
0.320135 0.653512 -3.157973 
-0.829973 1.929296 -0.792500 
-1.342350 1.378960 -1.719141 
1.613522 1.416912 -1.812017 
0.101396 2.713184 0.613436 
-1.901162 3.500676 1.292296 
-1.505998 2.391302 0.102350 
2.195282 2.021427 -0.502121 
0.512607 3.045039 0.741308 
-1.715414 1.905643 -0.973848 
1.819841 1.658365 -1.350793 
0.713501 3.013721 0.680285 
2.234063 2.010510 -1.043982 
1.190155 1.653533 -1.117413 
-1.524111 3.308799 1.211456 
1.065764 2.017572 -0.746443 
-1.259843 3.605968 1.421893 
-2.130075 3.525211 1.433863 
2.089946 2.326394 -0.172599 
-1.019758 1.280536 -1.780665 
1.245389 2.158790 -0.571611 
-1.262259 1.863991 -1.018351 
0.115578 3.000183 0.800732 
0.689254 2.293801 -0.361779 
-1.863348 2.785038 0.582002 
0.038931 1.215718 -1.961153 
-0.783683 0.670200 -2.714487 
-0.826898 1.192812 -1.829762 
-2.249247 3.500828 1.444645 
1.609707 1.395557 -1.765584 
-2.123686 1.930315 -0.929766 
1.367161 2.399754 0.492687 
-2.575109 3.716882 1.727409 
2.346989 1.985506 -1.031525 
0.741620 1.902584 -0.985224 
-2.461263 3.645714 1.661564 
2.171074 2.010108 -0.870452 
-1.605965 3.588940 1.540724 
1.578668 2.140420 -0.403701 
-2.544137 4.283804 2.608303 
0.338038 0.895309 -2.476811 
-0.503123 1.430742 -1.683392 
0.945556 2.029381 -0.866621 
-0.768706 2.329336 -0.310406 
0.592979 2.898458 0.873402 
-1.372014 3.453699 1.257163 
-2.843316 3.942017 2.118530 
-0.611362 1.419955 -1.698874 
0.269735 3.078429 0.510275 
1.066899 2.582399 0.485058 
-0.084119 2.489925 -0.061851 
2.427422 1.886191 -0.899046 
-0.426651 1.985335 -0.834231 
1.000814 3.144653 1.065068 
0.021584 1.598411 -1.428418 
1.067060 2.092491 -0.656257 
-0.646990 2.616854 0.489104 
-0.214252 2.036211 -0.763195 
-2.269872 3.833794 1.938038 
-0.374983 1.417230 -1.708160 
1.168994 2.465665 0.306503 
1.814123 1.820686 -1.077032 
-0.834766 2.682293 0.634786 
1.062883 2.626184 0.173845 
-2.778695 3.923289 2.131745 
0.278549 2.513538 0.033813 
-1.374612 2.458164 0.225161 
-1.150442 2.591318 0.143126 
0.973113 1.810304 -0.767770 
0.840265 1.811778 -0.915726 
0.039703 1.371908 -1.489675 
-0.028581 2.806512 0.399896 
0.089286 0.311238 -3.357915 
-2.636258 2.856804 0.571499 
-0.039814 1.457722 -1.605407 
0.970355 2.187088 -0.112609 
-2.175026 2.834520 0.242192 
0.757837 2.767913 0.695795 
-2.822655 3.970960 2.554541 
-2.249526 2.708108 0.496027 
1.728732 2.808153 0.406120 
-3.403593 4.286443 2.631032 
0.760804 0.530895 -3.115668 
1.943504 1.322430 -1.963368 
-3.353720 4.009538 2.214228 
1.267104 3.115468 0.882426 
-1.267238 3.461917 1.338028 
-1.931908 3.956656 2.101169 
0.372089 2.147483 -0.569377 
-2.494981 3.964962 1.918640 
1.132532 1.274188 -1.938398 
-0.151942 2.208703 -0.250173 
-2.429982 2.046028 -0.748216 
2.178423 2.332743 -0.269116 
-2.836640 4.303043 2.762695 
-0.482172 2.222092 -0.090696 
1.305557 1.385060 -1.762051 
-0.265836 1.403352 -1.724670 
-2.661555 3.417499 1.333736 
1.360358 1.906481 -1.005491 
-1.568137 1.331316 -1.840988 
0.796669 3.353527 1.199620 
0.877752 2.131634 -0.185613 
-1.665170 4.168911 2.191360 
0.258484 1.661202 -1.135923 
0.928686 1.454242 -1.663252 
1.890267 2.965147 0.635247 
0.658516 1.291821 -1.859318 
0.664309 2.674768 0.531323 
-3.162583 3.870136 1.930134 
0.260976 0.770065 -2.678153 
-0.645011 0.818276 -2.601086 
-1.133080 2.153297 -0.446419 
1.798883 1.511037 -1.353498 
-3.349245 4.238308 2.556490 
1.237674 1.218599 -2.025753 
2.157025 1.166843 -1.986769 
-0.077603 0.482139 -3.212454 
-0.542522 2.294609 -0.365977 
-1.684123 1.705871 -1.268527 
-1.886399 3.391471 1.356189 
0.131387 1.474550 -1.618127 
2.370746 2.738046 0.356626 
1.993964 1.823292 -0.970233 
-2.884652 2.606833 0.101530 
-2.322321 4.459200 2.858068 
-0.534682 0.360436 -3.325545 
-1.954798 3.186848 0.959330 
-1.646382 2.155693 -0.588525 
-2.310437 3.751708 1.800160 
0.458913 2.947850 0.595904 
-1.685416 2.183395 -0.555310 
2.077568 1.516345 -1.583822 
-1.057688 3.779491 1.777368 
0.528574 2.659850 0.181902 
-0.717721 0.166261 -3.512220 
0.914636 1.219920 -1.853682 
1.697901 3.296320 1.069624 
0.243809 1.756588 -1.226331 
-0.657886 0.881111 -2.501516 
2.002419 1.306869 -1.986583 
1.465076 2.147183 -0.595643 
1.163971 1.155457 -2.059848 
2.316087 1.866904 -0.754836 
0.665897 1.503298 -1.600955 
0.114703 0.572086 -3.034036 
-1.236511 2.234789 -0.323416 
-1.576089 3.259493 1.056835 
-0.327404 1.358811 -1.794068 
-2.384975 3.586072 1.732882 
1.642782 2.205532 -0.515567 
-2.429252 4.488245 2.904292 
-0.127522 2.666671 0.189597 
-2.944251 4.066470 2.617097 
0.066385 2.205945 -0.001611 
0.194922 1.321933 -1.866944 
1.030147 3.225291 1.008574 
-2.954632 3.069727 0.805857 
-2.260464 4.110135 2.361281 
-0.846672 0.622705 -2.700243 
-1.692603 3.538108 1.478512 
2.051092 2.186774 -0.300406 
-2.945944 2.739722 0.290088 
-0.151458 2.231317 -0.024057 
2.490294 2.470338 -0.453898 
1.288187 2.485490 0.367506 
-1.371282 3.542143 1.396782 
1.598875 0.857137 -2.612105 
-2.403643 3.808925 1.901507 
-2.348154 2.964208 0.550200 
0.178874 2.285068 -0.379364 
-1.377188 1.205594 -1.978200 
1.728995 2.432072 -0.085591 
-0.967967 1.709211 -0.895964 
-1.519942 3.307703 1.189708 
2.682472 2.639123 0.114666 
0.362345 2.814397 0.408715 
-2.433532 3.011475 0.720511 
-1.000798 0.876594 -2.537684 
-2.012137 2.890111 0.534388 
0.041639 1.132201 -2.114042 
-0.744997 2.705273 0.595843 
-1.954457 4.291675 2.595273 
-2.665089 4.381021 2.756729 
0.680833 0.841127 -2.815454 
1.400038 2.664741 0.394462 
-1.736562 3.048606 0.758813 
-1.074328 0.822203 -2.559562 
0.865620 1.101004 -2.425036 
0.124038 2.590031 0.505726 
1.581508 1.596670 -1.497086 
1.269307 1.275171 -1.612901 
-3.104477 3.426504 1.341541 
-0.715342 1.281006 -1.902986 
-1.580379 1.586783 -1.432458 
-0.927246 1.788397 -0.324736 
-0.048607 3.397937 1.252847 
-1.357285 2.233717 -0.469700 
0.178435 1.691063 -1.350148 
0.198785 1.876838 -0.377433 
-0.977235 1.007834 -2.406054 
-0.060351 2.250984 -0.010189 
-1.921353 2.746241 0.180453 
-1.066285 1.255356 -1.927948 
-1.507064 3.474824 1.034181 
2.346738 2.738528 0.274956 
-1.265806 2.760097 0.377978 
-0.350379 1.630292 -1.389650 
-1.281071 2.883651 0.717559 
-0.506386 2.266635 -0.065097 
-0.062289 2.215884 -0.317975 
-1.749772 3.160171 1.130585 
0.395429 0.721568 -2.596754 
-0.618858 1.714902 -1.124847 
2.160870 2.330726 -0.334452 
-1.688690 2.215331 -0.487287 
0.253890 0.860087 -2.531764 
0.393642 3.096283 0.787851 
1.472462 1.400560 -1.751182 
-2.227408 3.842207 1.948176 
0.623741 1.145038 -2.143373 
-0.028722 2.157096 -0.447871 
-3.145019 3.094074 0.836061 
-1.801886 3.292477 1.121544 
-2.522517 3.783736 1.869802 
0.189960 1.246566 -1.706474 
-0.263730 1.541496 -1.563066 
2.928242 2.761775 0.278588 
-1.530884 1.981741 -0.834289 
-1.457276 3.600780 1.350102 
1.486844 2.444602 0.310803 
-1.500851 3.553014 1.049612 
1.100366 2.484340 -0.436040 
-0.633722 0.716357 -2.751505 
-2.631580 4.018338 2.130044 
-1.981398 3.490326 1.560949 
-2.004369 1.873053 -0.960340 
-0.401249 2.964730 0.634048 
-0.688250 3.220217 0.977931 
-2.723599 4.314192 2.660336 
1.183576 2.581069 -0.349775 
-1.312690 1.666798 -1.312207 
0.629665 1.641438 -1.346422 
1.160583 1.986064 -0.648316 
1.030878 1.513981 -1.192608 
1.668769 1.036809 -2.190547 
1.777215 2.288462 -0.090316 
-1.332825 2.411385 -0.172248 
-0.230205 1.048283 -2.265405 
-1.547104 2.301855 -0.208357 
-1.349608 2.457091 0.046063 
0.696760 1.452142 -1.526763 
-0.063347 1.081676 -2.222578 
0.038217 3.306325 1.118735 
0.851812 3.096517 0.817317 
-2.848277 4.318883 2.674152 
0.315136 2.570379 0.170548 
0.470158 3.411296 0.951106 
0.797006 1.025286 -2.421587 
0.081120 1.163736 -2.067189 
1.279844 2.675272 0.342882 
-1.027129 2.729125 0.828982 
-0.301214 2.080398 -0.425238 
-0.217613 2.305947 -0.175479 
-0.040421 1.188146 -1.698268 
1.729180 2.386946 0.032261 
-0.397738 2.669459 0.209290 
0.052078 2.132241 -0.487954 
0.171145 1.441125 -1.661133 
-0.389013 3.376760 0.927952 
1.171003 1.408148 -1.278307 
0.029447 2.427746 -0.159467 
0.626352 2.924789 0.562063 
0.064784 1.206043 -2.050838 
-0.663005 1.682483 -1.182573 
-2.267730 2.173916 -0.529756 
0.356098 0.813309 -2.619092 
1.557712 2.911746 0.584973 
-2.148788 2.851614 0.111332 
0.868262 3.522365 1.438541 
1.118512 1.655611 -1.356443 
-0.544314 1.367599 -1.766661 
-0.412086 0.933834 -2.436475 
0.364893 1.269066 -2.182924 
0.569913 3.158982 0.855543 
0.088440 2.125469 -0.622724 
2.266865 2.170422 -0.412605 
2.379708 3.082255 0.743103 
0.771816 0.901630 -2.806446 
0.407417 2.462441 -0.247193 
-3.286691 3.100275 0.815674 
-2.062951 1.593869 -1.404296 
0.853991 2.618735 0.162649 
-2.732968 4.313840 2.544600 
0.395911 1.937477 -0.204414 
1.109445 2.538014 0.282722 
-1.992302 2.116219 -0.562241 
-0.549862 2.152339 -0.232007 
0.515579 1.277028 -1.450359 
1.098072 2.613482 0.308380 
0.128486 1.817004 -0.246677 
1.725615 0.901972 -2.551067 
-1.003871 1.439564 -1.654832 
-0.394274 2.175699 -0.144550 
-1.313774 1.408805 -1.714008 
-2.537629 3.706904 1.570768 
1.383466 1.448604 -1.664091 
-1.114748 1.367942 -1.501400 
-1.042971 1.000899 -2.339624 
-2.233174 4.359628 2.769964 
-0.408995 2.016802 -0.992874 
-2.133959 3.686032 1.698135 
-2.331261 1.807041 -1.060703 
0.478171 0.835168 -2.561999 
-1.957659 3.152715 0.921109 
0.365242 3.065220 0.804597 
-0.091842 0.634852 -3.174973 
1.614831 2.219851 -0.468741 
0.552111 2.897201 0.541559 
-2.700863 4.478005 3.001544 
0.955533 1.334218 -1.767107 
-1.421063 1.451541 -1.571090 
-0.179254 1.748755 -0.766452 
-0.372314 2.354306 -0.270944 
-1.383392 2.911111 0.620066 
-0.398459 2.216507 -0.161215 
-1.720397 3.526082 1.454267 
-2.276147 3.124418 0.891883 
1.787138 2.681953 0.226405 
-0.509165 1.139241 -2.121872 
0.321913 3.318421 0.966984 
-1.384095 2.068139 -0.724989 
-0.021307 1.503415 -1.334844 
2.665540 2.820442 0.376129 
-0.633137 0.524822 -3.048094 
-1.314438 1.125128 -2.145538 
-0.585042 2.385798 -0.533800 
-3.115549 3.640076 1.777601 
-1.375602 2.848099 0.469087 
-1.308228 0.989428 -2.367718 
-0.522336 2.347190 -0.285126 
-2.807553 3.677797 1.706088 
1.952406 1.818733 -1.111433 
0.960196 0.982158 -2.376192 
-0.067017 1.895721 -0.728113 
-0.860747 2.007838 -0.480818 
-2.417696 3.104451 0.861138 
1.222598 1.917015 -0.536886 
0.363049 2.648767 0.514487 
0.281545 0.942049 -2.444772 
2.453204 2.256365 -0.447605 
-0.327282 2.010151 -0.805265 
-0.668855 1.773534 -0.700632 
1.150212 2.870909 0.631316 
-2.156605 3.444300 1.354665 
1.586379 2.118908 -0.651086 
0.043502 1.298739 -1.627755 
0.449605 2.580395 0.281865 
-2.343685 3.994767 2.173461 
1.573720 2.020163 -0.653234 
-0.804338 0.717002 -3.188420 
1.270782 2.826693 0.463330 
0.628085 0.957094 -2.432909 
0.137530 0.579845 -2.977642 
-0.513390 2.150829 -0.594960 
-0.024287 2.567045 -0.521818 
-1.208034 2.929170 0.686153 
-0.432867 2.706609 0.337512 
-0.379046 2.671955 0.027532 
-2.446774 2.299418 -0.357566 
1.820527 2.715960 0.286746 
-1.540137 3.060753 0.817037 
-2.303874 2.488300 -0.076262 
0.662235 2.845080 0.372059 
-2.667925 4.311920 2.658751 
-1.834150 2.224502 -0.470255 
0.016344 2.986512 0.557944 
-1.552298 3.847423 2.007108 
-0.676032 1.771636 -0.970999 
0.320615 1.724723 -1.286660 
0.465276 0.991073 -2.394429 
2.356221 2.625875 0.121041 
-1.602426 1.356977 -1.796374 
-1.504951 2.423181 -0.029920 
-1.644101 2.134078 -0.625133 
0.887772 2.864683 0.484833 
-2.087923 2.164775 -0.525891 
0.264714 0.617813 -2.961563 
-1.895488 3.640962 1.632979 
-1.377219 2.607744 0.129069 
-0.772848 2.244666 -0.451683 
-0.433269 2.117063 -0.577894 
0.474890 1.994771 -0.398009 
-1.289044 2.496277 -0.047694 
2.447982 2.523547 -0.038275 
2.526825 2.577940 0.033188 
1.621501 0.928497 -2.335849 
0.924445 2.925831 0.576007 
2.242038 2.169908 -0.579010 
-2.929098 4.474964 2.906603 
2.041468 1.298949 -1.921019 
-2.628912 4.058011 2.062283 
1.040327 2.393416 0.294181 
-1.452867 2.171579 -0.389793 
-3.193944 3.880924 2.028808 
-1.850301 2.226278 -0.378493 
-2.167613 3.302917 1.147772 
0.504338 1.456439 -1.657868 
-2.829559 3.733103 1.862693 
-1.388485 1.977869 -0.438847 
-0.891548 1.850955 -1.021771 
-0.163710 2.813154 0.427158 
1.728869 2.282543 0.200039 
0.162352 3.361752 1.200229 
-0.800607 2.696206 0.678379 
-1.778366 2.322621 0.049635 
-0.503780 0.752617 -2.700757 
-0.864067 0.722085 -2.754449 
0.701127 1.156790 -2.038535 
0.797432 2.863335 0.281247 
-1.746397 2.870602 0.630077 
2.220896 1.914295 -0.747553 
-0.171837 0.753762 -2.488239 
-0.067513 2.768324 0.357811 
-1.768994 3.687282 2.024289 
-1.582438 2.577885 0.072711 
-0.470037 0.845380 -2.568557 
-1.684170 2.568396 0.401789 
0.736654 2.141111 -0.597032 
0.506064 2.645174 0.160042 
-3.039739 4.548524 2.980858 
-3.097470 3.011611 0.746083 
1.998674 2.467682 -0.073640 
2.165872 2.122474 -0.648517 
0.672485 1.879291 -0.971166 
1.610146 1.660908 -0.767498 
-0.871261 1.493167 -1.498932 
1.158797 2.872251 0.524365 
1.268875 2.064104 -0.287081 
2.269169 2.721169 0.257960 
-0.615966 1.898941 -0.952593 
1.033132 1.941399 -0.520863 
-0.961621 3.778753 1.684191 
0.124476 2.196291 -0.480895 
0.953651 1.059717 -2.048486 
1.369543 2.841448 0.432024 
-0.988357 0.818600 -2.607243 
0.755606 2.974823 0.627910 
1.336514 2.831531 0.417282 
-1.963347 3.322012 1.354090 
-2.693612 3.658607 1.774386 
-2.796631 3.317852 1.184297 
1.325174 2.120394 -0.111941 
0.410632 1.552371 -1.622391 
-2.903527 3.622971 1.629962 
-3.078353 3.006734 0.727046 
-0.423141 1.853533 -0.631981 
-2.058083 1.899739 -0.977757 
1.626145 2.102709 -0.673676 
0.319982 1.861999 -1.025597 
0.161776 1.681637 -0.773168 
-2.533983 3.427674 1.344998 
-1.742735 2.583071 0.334160 
0.684066 1.345766 -1.781034 
0.150660 2.259140 -0.545660 
1.488306 2.165457 -0.396596 
-2.917608 4.011801 2.226387 
0.823689 0.612644 -2.967479 
-2.835918 3.942263 1.928755 
-2.839045 3.573353 1.763676 
-2.655843 4.030161 2.229145 
0.696468 2.750674 0.314407 
-0.838127 3.728506 1.717959 
-2.174975 4.419705 2.791166 
-1.058345 2.494757 0.100018 
-1.142989 2.463890 0.065177 
-1.784523 1.561101 -1.287927 
-0.151580 1.493480 -1.487430 
0.468136 1.805979 -0.817264 
-0.798311 1.672532 -0.897922 
0.172340 1.432467 -1.502434 
-0.379394 1.870116 -0.999819 
-1.369935 2.240493 -0.326761 
0.934218 2.782343 0.355229 
1.584680 1.959624 -0.905162 
-0.806623 1.260131 -1.856363 
-0.179031 1.486375 -1.499489 
-1.311852 2.677442 0.007073 
0.300880 2.676170 -0.112007 
1.032198 3.233567 1.360835 
-0.199047 0.434726 -3.296047 
2.419974 1.175629 -2.090470 
0.183113 2.223327 -0.474292 
-2.434526 3.376837 1.268605 
-2.371207 2.099823 -0.671564 
-0.585997 0.303520 -3.402736 
1.126413 3.290448 1.012730 
-1.036633 0.916830 -2.475974 
-2.682452 4.553347 2.706114 
0.663800 2.801183 0.388070 
-0.030026 0.323428 -3.376290 
0.992822 2.623508 0.167785 
-1.858893 1.808510 -1.103197 
-1.424130 2.027409 -0.627131 
0.563722 2.579826 0.053724 
-0.572207 1.164919 -2.082555 
1.958754 1.585598 -1.469199 
-2.976315 2.847177 0.444021 
1.972513 2.202586 -0.595535 
-1.726247 1.607756 -1.513393 
-2.216175 3.579347 1.629933 
2.332123 1.266800 -1.980954 
-0.465333 0.422817 -3.191966 
-1.069946 0.934863 -2.437795 
1.896616 1.538394 -1.544248 
-2.827769 3.674256 1.921206 
-2.677005 3.873204 2.036404 
0.136413 2.284326 -0.556892 
0.238462 2.032282 -0.520309 
1.392445 1.555199 -1.501402 
0.814198 2.845339 -0.184085 
-0.432093 2.370504 0.073621 
-2.702425 3.250041 1.079257 
1.514327 2.282702 -0.382140 
-2.220823 3.257502 1.085169 
-1.364774 2.640393 0.175254 
3.199889 2.038424 -0.800868 
-2.393295 4.039554 2.248737 
0.913409 1.783329 -1.064279 
-1.328444 3.967901 2.094599 
0.078095 0.920897 -2.435534 
-2.222857 3.597727 1.583567 
0.363949 2.647987 0.461987 
-0.447793 1.945654 -0.901383 
1.547129 2.099883 -0.677968 
-1.360547 1.184402 -2.128301 
1.908431 2.610611 0.125354 
-0.567284 0.437061 -3.179853 
0.860479 2.122631 -0.410626 
-1.861403 2.973517 0.648999 
-1.355312 2.270944 -0.312280 
2.639019 1.575011 -1.515385 
-2.127806 4.387148 2.781347 
1.011588 2.305585 0.068538 
-1.281817 3.567986 1.494891 
0.092354 0.377140 -3.294109 
-1.189933 2.992790 0.721169 
0.882309 3.489048 1.392674 
-1.378142 2.469994 0.248171 
2.364197 2.504498 0.290982 
-1.682323 3.196440 0.904969 
-2.407516 2.266819 -0.416956 
-0.543364 1.780133 -1.290070 
0.086046 2.664349 0.328375 
-0.795259 0.434727 -2.892910 
1.673256 1.638258 -1.396286 
1.601161 3.357962 1.022737 
0.122022 1.080286 -2.236165 
1.702317 1.139578 -2.188419 
2.152960 2.667277 0.190058 
-1.037481 2.589379 0.090835 
0.295940 3.330196 1.139842 
1.651388 2.723369 0.285770 
-1.257112 2.143739 -0.434019 
1.539492 2.221342 -0.485317 
0.855006 2.863728 0.600947 
1.323713 1.836051 -1.066607 
1.141461 1.193612 -1.824741 
-2.278028 4.348248 2.679568 
-2.388690 4.420519 2.869922 
0.982979 2.846300 0.441644 
0.394379 1.123971 -2.155033 
0.942992 2.674552 0.282665 
2.398029 2.045654 -0.775882 
2.588059 1.950591 -0.924523 
-2.236926 3.913785 2.112737 
-2.478080 3.458210 1.389955 
-1.544048 1.401440 -1.462125 
-0.531288 3.212550 1.003308 
-2.519410 4.306138 2.640157 
-1.829934 3.436316 1.326192 
0.722195 1.941748 -0.874892 
-2.942530 2.915641 0.570717 
2.388484 2.786767 0.313501 
1.875158 2.257107 -0.312290 
-2.848195 3.414124 1.328204 
0.700521 1.706166 -1.224667 
-0.131594 0.221794 -3.342710 
-1.013567 2.812993 0.742675 
0.244871 2.267134 -0.420954 
1.795970 1.262552 -1.750681 
-2.550038 3.540790 1.132349 
-0.665654 0.475524 -3.127454 
-1.497514 2.537325 0.145635 
-0.977122 1.796118 -0.840982 
-1.410133 2.410430 -0.185694 
0.001818 0.643543 -2.938012 
-1.819176 2.996406 0.687250 
1.236485 1.788875 -0.696225 
2.104020 1.314000 -1.718824 
0.974748 2.651663 0.238168 
-0.316915 2.873046 0.496542 
0.006233 1.609445 -1.302513 
-2.336887 3.551383 1.519289 
-1.137535 1.815192 -1.099890 
-2.950479 2.827063 0.348979 
1.214243 2.124938 -0.323984 
-1.350715 3.092077 0.747146 
-0.948044 1.334145 -1.889443 
1.089737 0.731821 -2.739726 
0.754427 1.061144 -2.322191 
-1.622730 3.266133 1.070850 
-1.221061 2.826113 0.438806 
1.785851 1.294698 -2.064354 
-1.808753 2.915595 0.562965 
-0.551055 2.150152 -0.579023 
-0.752453 2.306457 0.183698 
1.216150 2.741539 0.242046 
2.236410 1.908758 -0.979489 
0.004715 2.709471 0.498845 
-1.527054 1.074465 -2.242157 
1.887784 2.324160 -0.163158 
2.380565 2.126189 -0.603964 
-0.402539 0.679099 -2.330828 
-0.241698 1.728153 -1.240791 
1.040393 1.980725 -0.732464 
-1.661126 2.464493 -0.027448 
-0.026229 2.093794 -0.668394 
-3.375364 4.033932 2.250571 
-1.392834 3.230960 1.571431 
0.151176 2.130475 -0.286181 
-0.281923 1.087777 -2.203825 
-1.022774 2.470345 0.193135 
1.170738 1.796665 -0.866867 
-1.457882 2.296502 -0.080144 
1.957495 2.522795 -0.011737 
1.040842 2.098966 -1.061651 
-0.445824 2.510184 -0.283583 
0.393283 2.617741 0.626057 
-0.049560 2.662780 0.406496 
-2.912679 4.526897 2.930321 
0.477083 1.300112 -1.910816 
-0.378975 2.212936 -0.498179 
1.962663 1.667273 -1.164972 
0.607788 2.743348 0.295919 
1.513028 1.715965 -1.306292 
1.292943 2.036089 -0.870041 
1.948578 1.989145 -0.850051 
-0.118530 2.420848 -0.047247 
1.100991 1.744202 -1.181297 
2.400461 2.301910 -0.374015 
-1.269215 2.918977 0.070226 
-0.097033 2.449451 -0.131063 
-2.482012 3.566427 1.491002 
0.588552 1.780830 -0.700958 
0.837887 2.288320 0.062675 
-1.290085 2.437786 -0.075410 
1.048583 3.497445 1.404514 
-2.608897 3.381674 1.281765 
-2.270982 3.410843 1.307820 
-0.844054 0.788462 -2.641765 
-2.775515 4.113336 2.200415 
-2.201836 4.485867 2.889162 
-0.518564 0.774584 -2.681691 
1.687993 1.756036 -1.206925 
1.021744 2.376135 -0.053537 
-0.622031 1.124411 -2.160563 
3.404690 2.001660 -0.865760 
-1.078107 3.654513 1.619042 
-0.338981 2.225981 0.040208 
1.191639 1.567041 -1.178354 
-2.192627 4.439556 2.846750 
1.785233 1.805513 -1.124720 
0.779780 2.158649 -0.230212 
0.678892 1.616811 -1.369619 
1.592028 2.082644 -0.707352 
-0.973143 1.924098 -0.568801 
-2.748323 3.284914 1.128419 
-0.742164 2.722240 0.690532 
-2.588348 2.507185 -0.049958 
0.623453 1.130502 -2.102674 
1.237039 2.471996 -0.073541 
-1.845995 3.197840 0.909594 
1.627338 1.910200 -0.977861 
0.022119 1.470619 -1.625443 
-0.826719 1.969676 -1.135389 
1.574984 2.287200 -0.067828 
-1.523270 3.000969 0.755122 
0.854067 1.334135 -1.670587 
1.355534 3.440349 1.343963 
-0.082791 1.733374 -1.218769 
-0.483768 2.910241 0.547230 
-2.193415 3.809395 2.056881 
2.292408 2.164403 -0.588463 
-2.673847 3.046219 0.741861 
-0.569420 0.760714 -2.703119 
0.603889 1.341019 -1.843089 
0.292523 2.923041 0.561316 
-1.244504 2.778050 0.374541 
0.874616 1.924548 -0.959056 
-2.457470 2.476805 -0.091487 
0.655225 2.761217 0.337129 
0.661337 2.664410 0.190331 
-1.951899 2.249001 -0.344696 
0.997716 2.165237 -0.171062 
0.677251 2.176232 -0.661078 
1.787601 1.811204 -1.133001 
0.831823 2.249523 -0.287895 
1.898944 1.496623 -1.599975 
-0.404551 1.577967 -1.460612 
-3.354059 4.179803 2.468073 
-1.795105 1.671993 -1.319995 
0.296971 1.510672 -1.566057 
0.786669 2.884413 0.505132 
-2.787775 4.103422 2.352149 
-1.365896 2.481253 0.168966 
-2.829782 2.756006 0.331066 
2.013248 1.286601 -2.113019 
0.030652 2.712115 0.486310 
1.668829 2.994876 0.670508 
0.748474 1.282494 -1.764164 
-1.146152 1.955797 -0.250682 
1.660536 1.339377 -1.908754 
2.020421 2.212539 -0.292261 
-1.114165 1.516783 -1.539725 
1.530909 1.929372 -0.712072 
1.538110 2.001991 -0.650206 
1.082422 1.900632 -0.991986 
1.789531 1.798293 -1.057762 
-0.092753 2.208092 0.065783 
-1.130699 1.667311 -1.404327 
2.671373 2.036610 -0.798450 
-2.410666 2.812864 0.431437 
1.021987 2.697956 0.263425 
1.477719 2.181854 -0.952899 
1.082133 1.650584 -0.925395 
1.215662 1.899092 -0.721075 
-0.630843 1.663866 -0.634976 
-2.053606 3.283154 1.224460 
2.714989 2.516759 -0.061240 
0.030492 2.354633 0.136209 
-0.964303 1.978424 -0.804201 
-0.909517 2.215928 -0.212926 
-0.272235 3.010574 0.693832 
0.580149 1.110444 -2.264275 
-0.085553 3.453614 1.314210 
-0.662508 1.689295 -1.217025 
0.962421 3.133283 0.612346 
-1.396546 3.742677 1.668640 
-0.159529 2.187972 -0.108856 
1.205126 2.333730 -0.312531 
0.463679 1.388480 -1.645280 
3.120643 1.776291 -1.159831 
-1.347636 2.500893 -0.105009 
0.862284 3.500583 1.443649 
0.093351 2.669339 -0.119779 
-0.008167 1.112289 -1.689577 
-0.846889 3.282008 1.091327 
-2.572616 3.244796 1.224946 
-2.122408 4.357626 2.738445 
-0.057878 2.456115 0.339238 
-0.051232 2.215590 -0.494158 
-1.001726 1.994719 -0.949025 
0.745916 1.828472 -1.044022 
0.739150 1.783568 -1.115476 
-0.277234 1.058824 -2.250175 
-2.049502 3.375994 1.250969 
0.904078 1.798900 -0.818624 
0.066432 1.687672 -1.295189 
0.279042 2.897546 0.193915 
1.782366 2.479738 -0.073836 
0.828393 1.291203 -1.916833 
-2.592222 2.892902 0.522088 
-0.979894 3.592324 1.324684 
-2.375638 3.638918 1.681715 
-3.286756 4.279665 2.612942 
-0.429555 1.772143 -1.160868 
-1.298759 2.704738 0.279648 
-0.046261 2.473432 0.091613 
0.571609 1.447437 -1.596835 
-3.120181 4.384509 2.809001 
0.035210 2.299351 -0.461290 
-0.191652 1.644126 -1.684086 
-1.048186 1.428520 -1.532422 
-0.024310 2.463117 -0.014779 
2.442515 1.309998 -1.913817 
-1.523614 2.653799 0.198416 
0.325703 0.651939 -2.805618 
-0.198455 2.649089 -0.013942 
-1.172508 2.754986 0.715055 
-1.979874 2.190441 -0.415089 
1.261093 2.086902 -0.568980 
1.182070 1.233675 -2.030282 
1.555071 1.740673 -1.226027 
-1.942524 3.766720 1.822306 
0.199784 2.088795 -0.286594 
-0.982919 1.878828 -1.190902 
-2.189798 3.354338 1.223285 
0.595791 0.927940 -2.578815 
0.311178 1.820224 -1.084469 
-2.056718 2.945466 0.632183 
0.843450 1.863852 -0.998002 
-0.366501 1.124708 -2.144843 
-1.317846 2.012516 -0.660713 
-0.923852 1.964889 -0.493356 
2.002333 2.088052 -0.410304 
1.086510 1.969809 -0.844304 
0.435417 3.089804 0.806634 
1.485483 3.241738 0.997980 
-0.650491 2.471632 0.336389 
-1.604864 2.523239 0.129496 
-0.479168 1.836282 -1.050079 
-0.643713 1.699000 -0.639720 
-2.220479 3.590227 1.687865 
-0.819959 2.231592 -0.463611 
0.817294 2.631559 0.147313 
-0.662420 1.356043 -1.783719 
0.009552 2.275243 -0.564104 
-1.214121 3.019750 0.714414 
-1.526194 1.521102 -1.555473 
0.822981 2.147471 -0.621497 
-1.031093 1.448947 -1.507877 
-0.217263 1.632650 -1.389868 
0.882903 2.750899 0.000618 
0.856762 1.567465 -1.416394 
-3.242990 3.320418 1.551251 
-2.227153 3.816998 1.773022 
-1.971108 4.057970 2.255701 
-2.562712 2.183090 -0.033137 
0.649253 2.249384 -0.027662 
0.390812 2.991280 1.043396 
-2.291844 2.360694 0.261054 
1.126398 0.812261 -2.660340 
2.063913 2.490025 0.059094 
2.267769 1.244665 -2.012956 
2.030420 1.585592 -1.263231 
-2.927542 3.551503 1.269615 
0.780177 3.174195 0.913328 
1.191936 2.794319 0.410190 
1.791880 2.666382 0.205141 
0.914658 2.601214 0.182476 
-1.811836 2.621371 0.196527 
-2.528229 2.833755 0.594768 
-1.803998 1.638522 -1.315568 
0.776249 1.956743 -0.911384 
-0.738351 2.204249 -0.500968 
-2.002289 2.170153 -0.527030 
0.850727 0.875723 -2.669680 
-1.594356 2.734122 0.213591 
0.948570 1.297664 -1.906532 
0.524155 2.998647 0.679077 
0.612988 1.411974 -1.736802 
-1.205107 2.309023 0.113825 
-2.264530 1.809141 -1.088136 
0.092699 1.712324 -0.969884 
-2.162410 2.460524 0.374258 
-1.582288 3.828498 2.001771 
-2.596329 3.594353 1.618968 
-0.118391 0.588225 -2.934458 
0.330682 2.839479 0.328297 
1.832372 1.750775 -1.029147 
-1.514460 1.585877 -1.448256 
-3.299909 3.587136 1.660496 
-0.905149 1.100199 -1.573078 
-1.385812 2.509650 -0.035111 
0.050182 2.417922 0.081445 
-0.017104 1.483062 -1.597308 
0.804455 2.537053 -0.296499 
-1.401864 3.152741 1.004920 
-0.118447 1.860605 -0.732151 
1.571598 1.977832 -0.477310 
1.574597 2.146699 -0.606429 
-1.716082 2.611719 0.124447 
-0.581690 3.377468 1.079196 
-0.796350 1.392861 -1.165322 
1.525656 2.121452 -0.633062 
-1.669727 3.794439 1.902120 
-1.020719 2.806423 0.416875 
1.489039 2.145497 -0.754342 
-0.915353 1.956870 -0.299996 
-0.282488 2.045615 -0.195362 
-1.260330 1.409651 -1.514158 
-1.185809 2.621565 0.095701 
1.643688 2.842867 0.457147 
0.963750 2.932303 0.188659 
-2.788750 3.117610 0.591850 
-2.729521 4.044578 2.231264 
-1.556099 3.093491 0.823168 
0.185531 2.384202 -0.391632 
0.318750 1.749226 -0.838361 
0.689033 2.561646 0.034944 
-1.911071 3.480877 1.395743 
-2.461666 2.585746 0.075413 
1.432968 2.408685 0.106900 
-1.772730 2.728275 0.405984 
0.233011 1.774632 -0.726390 
-3.262303 3.911900 2.079517 
-1.331134 2.631305 0.149787 
-2.163172 3.631873 1.611860 
-3.221973 3.970034 2.159424 
-1.342828 1.520261 -1.441505 
0.612061 1.775304 -1.135343 
0.522957 1.983486 -0.837805 
1.514947 2.219445 -0.490547 
-1.217754 2.842573 0.465690 
0.067815 1.933793 -0.421586 
0.026609 2.223879 -0.467959 
1.225505 2.195085 -0.550597 
-0.274290 0.401607 -3.229230 
1.636325 1.708098 -1.276852 
-2.175835 3.308372 1.157163 
2.777325 2.289408 -0.382238 
0.174481 2.247438 0.144198 
0.080584 0.703053 -2.880265 
2.238955 2.380603 -0.317462 
1.454521 2.292893 -0.361933 
0.434280 0.553141 -3.025130 
0.232398 1.652919 -1.343850 
-2.866211 3.574946 1.567001 
0.866168 2.901660 0.524290 
-3.154092 3.613713 1.411853 
-1.633749 1.444561 -1.657734 
-0.515031 0.397763 -3.248123 
-0.794970 2.201358 -0.502650 
0.870513 2.254488 -0.213849 
-2.716105 4.342596 2.700394 
0.187516 0.356944 -3.305053 
-0.439264 2.718000 0.279321 
-0.750510 2.677056 0.623955 
-3.500834 4.051199 2.274375 
0.359330 1.280370 -1.879662 
1.974245 2.396750 0.009351 
-2.430862 3.349027 1.128955 
-0.344605 0.765563 -2.698778 
-3.200481 3.738327 1.839509 
1.795932 2.544624 0.034792 
2.398851 1.208713 -2.075857 
1.605766 1.551946 -1.553958 
-0.956191 3.360699 1.184388 
-0.191395 2.501736 0.105209 
0.249636 3.419683 1.285277 
0.255383 1.737582 -1.254702 
2.331928 1.603478 -1.451225 
-0.081937 2.830955 0.516462 
-0.915829 2.644254 0.253108 
0.796823 2.685045 -0.158700 
-0.625314 2.084642 -0.331810 
-1.182992 1.558394 -1.192905 
1.875179 2.269042 -0.327567 
-1.480863 1.389160 -1.828912 
-0.200851 3.353340 1.221292 
-1.032299 3.495736 1.433784 
-1.758969 1.262509 -1.939756 
2.919438 1.863420 -1.064391 
-2.644925 4.071896 2.307990 
1.507498 1.617141 -1.420159 
3.054278 1.563823 -1.558421 
-1.114692 2.290115 -0.369387 
-2.056028 2.161546 -0.569891 
0.238726 3.576433 1.524058 
-1.952133 1.344675 -1.537468 
-1.242938 2.759014 0.496969 
-1.145016 1.490591 -1.577853 
0.817923 2.231468 -0.522749 
-1.241224 3.316273 1.187597 
0.688163 1.582018 -1.433609 
2.584060 2.566127 -0.147612 
-0.692059 1.118348 -2.103324 
0.826902 0.891149 -2.547547 
-0.783000 1.575087 -0.826491 
-2.356269 3.657436 1.673102 
-0.952932 1.930640 -1.137682 
-3.174660 3.516365 1.478676 
0.451709 3.172030 1.277118 
-0.216888 2.333884 -0.473397 
-0.127797 2.710837 0.271543 
-1.254070 1.596033 -1.427901 
1.561014 2.299053 -0.353744 
-1.599551 4.077937 2.224116 
1.932343 2.213601 -0.328180 
1.054050 0.537084 -3.090108 
2.078340 1.129894 -2.199256 
-0.407459 1.219730 -1.994502 
0.857927 1.818711 -0.754494 
2.014144 2.370783 0.023843 
1.479923 1.272830 -1.764004 
0.186089 0.992778 -2.320168 
-3.080759 4.155838 2.782296 
-0.481568 2.357386 -0.273469 
-0.688475 0.347174 -3.324461 
-0.988122 1.569568 -1.458692 
1.601442 1.445338 -1.685627 
2.575930 1.303974 -1.925212 
0.584419 2.967749 0.620346 
-0.049562 2.238533 0.004547 
1.079755 3.484906 1.412311 
-2.054952 2.332784 -0.304154 
0.493821 3.038568 0.760408 
-3.290940 4.229492 2.501203 
1.712089 1.854468 -1.044606 
-1.337101 1.791533 -1.117414 
-1.205852 2.745921 0.869377 
0.028589 2.553238 0.032237 
-0.182621 2.890851 0.485347 
1.588231 2.685977 0.301255 
-0.073358 2.284091 0.057902 
2.181184 1.234078 -1.946160 
1.403977 1.033225 -2.216922 
2.331805 2.020645 -0.889803 
1.696019 1.876665 -0.567346 
-3.170816 4.081461 1.875239 
0.869149 2.696211 0.187054 
-1.036622 2.633796 0.314235 
1.532196 1.225190 -1.851283 
-1.239940 3.581137 1.515448 
-1.957836 3.589013 1.558882 
-0.649218 1.459841 -1.628752 
-2.048819 3.177111 1.124141 
-0.600350 0.399549 -3.226965 
0.078164 1.330411 -1.780316 
1.496227 1.716545 -1.255658 
-2.583755 2.663355 0.252378 
-1.164369 0.876154 -2.530412 
-0.387546 1.238706 -1.971532 
-1.692612 3.213474 1.024000 
-0.330167 2.723171 0.304794 
1.005311 2.276771 -0.396241 
-0.473984 2.403339 -0.191279 
-2.434418 2.903068 0.652466 
0.247680 1.895576 -0.973182 
0.870141 3.284302 0.922720 
-0.503019 0.164082 -3.357011 
0.024773 2.663594 0.191114 
-0.247634 1.806315 -1.109740 
0.710576 2.558372 -0.369065 
-0.441919 1.422005 -1.694246 
1.237698 1.974530 -0.526924 
2.701806 2.294072 -0.373329 
0.727177 1.637172 -1.258140 
0.985281 1.335829 -1.797742 
2.071597 1.468647 -1.830553 
1.647866 1.197955 -1.864313 
-1.246204 1.956564 -0.880071 
-1.258237 3.170429 0.499176 
-0.411273 2.269586 -0.130977 
-0.652996 2.198295 -0.514907 
0.613119 2.607459 0.098209 
-2.540142 3.962452 1.958277 
2.789933 1.845651 -1.088177 
-0.943255 2.391065 0.721042 
0.289357 1.819755 -0.807491 
-0.678473 0.635978 -3.290318 
-0.454715 3.209565 0.985992 
0.416493 1.772528 -0.786857 
-0.761890 1.254689 -1.897862 
-1.754585 2.063672 -0.726930 
2.332301 2.264160 -0.445290 
0.310513 3.544860 1.475353 
-0.045577 1.876664 -1.101064 
-0.649523 2.278759 -0.385818 
0.211370 3.580107 1.513622 
-1.569241 2.193285 -0.416984 
1.204905 2.372699 -0.273595 
1.039763 1.519911 -1.479712 
-1.212573 2.671574 0.047791 
-0.935338 1.669195 -1.306219 
0.365280 1.148953 -2.142325 
1.683585 1.012762 -2.182918 
-2.569990 2.787090 0.442947 
-0.951239 3.239127 1.016713 
3.253415 2.297805 -0.347439 
2.807876 2.401512 -0.116795 
0.713754 2.155565 -0.877918 
-3.510333 4.004341 2.203351 
-1.432120 2.961124 0.592941 
-0.896719 1.681994 -0.895084 
0.324608 1.445607 -1.794205 
1.167879 2.140822 -0.349628 
0.928412 1.015574 -2.598098 
1.171928 2.877109 0.473986 
1.340781 3.052369 0.739289 
-1.013256 3.149389 0.482165 
2.012825 1.669672 -1.307843 
1.933447 1.698279 -1.293981 
2.845231 1.917112 -0.965968 
0.402297 1.473430 -1.515602 
1.237390 1.641145 -1.457958 
-0.446836 3.295022 1.107151 
0.655644 2.880268 0.802332 
0.045773 1.784982 -0.646895 
-3.341782 3.613963 1.617423 
0.555295 1.949388 -0.858944 
-0.541585 2.485558 0.068339 
-2.598257 4.086855 2.323196 
0.786801 2.250015 0.023431 
-0.362323 1.650153 -0.943211 
1.924108 1.727184 -1.247696 
0.621740 2.044832 -0.423949 
-2.293949 3.040395 0.377965 
1.970003 1.146787 -2.182502 
-0.217246 2.428200 0.037929 
-1.969319 3.338339 1.188885 
1.707340 1.196968 -2.090739 
0.437853 1.407838 -1.298366 
1.072465 1.935126 -0.983795 
-0.859459 3.139342 0.576072 
-0.613920 1.782824 -0.736351 
-2.765234 2.455483 -0.129045 
1.709732 2.144475 -0.458951 
-0.482030 2.434085 -0.048078 
1.930599 1.604581 -1.442345 
1.677390 1.453765 -1.671585 
0.362623 1.871159 -0.637123 
0.936350 1.121379 -2.010790 
0.701845 0.940346 -2.564446 
-2.576303 4.335904 2.681921 
-0.505261 1.768476 -0.901861 
1.777595 2.970715 0.470692 
-0.319574 2.975221 0.642271 
-0.579812 1.734363 -0.979253 
0.093677 2.008810 -0.579303 
-0.853655 2.398007 -0.209412 
-3.069520 3.401478 1.298422 
0.582775 2.678804 0.516726 
0.402584 2.577980 0.094676 
-0.575653 3.010409 0.565814 
-2.874390 3.530518 1.501141 
-1.722613 2.417834 0.344004 
-0.673234 1.230889 -1.973138 
1.109392 2.539949 -0.104347 
-1.981879 2.981898 0.661083 
1.703832 2.368947 -0.245592 
-1.409895 2.119271 -0.456645 
-0.641603 2.454784 -0.126015 
-2.983701 3.567772 1.554071 
-0.037766 1.562341 -1.347075 
0.496658 1.991107 -0.417685 
3.244204 2.446430 -0.241175 
-1.917880 1.737113 -1.213609 
-1.846175 2.189490 -0.526860 
-0.416897 1.916959 -0.941558 
1.529653 1.288569 -1.918920 
-1.590737 2.511113 -0.234056 
0.160521 2.577905 0.111772 
-0.093644 0.517810 -3.100069 
-1.853641 1.254214 -1.968619 
-0.200839 0.637946 -2.855028 
-1.117651 2.617534 0.048009 
1.399777 1.648362 -1.361141 
-1.752214 2.872143 0.525954 
1.302580 1.129423 -2.169193 
1.114592 2.173996 -0.268333 
0.388126 2.047835 -0.402870 
1.412022 1.476878 -1.623583 
-0.882005 3.501933 1.393885 
1.715703 1.288148 -2.152804 
1.018928 1.747320 -1.107713 
0.339740 1.695997 -1.245838 
-1.231361 1.702761 -1.234453 
-1.411201 1.706489 -1.169543 
-2.213352 3.064867 0.931639 
-2.851021 4.131626 2.395047 
-1.695951 2.628373 0.150937 
-1.499554 3.051578 0.995689 
-0.661481 1.675899 -1.299841 
1.318299 1.552528 -1.492504 
-2.765057 3.198157 0.999741 
-2.482963 2.465701 -0.110478 
-2.730793 2.514954 -0.084496 
2.658389 2.288970 -0.403092 
2.357759 2.151052 -0.606296 
-2.500128 2.870208 0.368384 
1.802363 1.970898 -0.904244 
0.179429 2.104938 -0.241781 
-0.492484 2.211696 -0.116148 
0.685660 0.953658 -2.223452 
1.708458 1.196245 -2.089564 
0.544417 2.620647 0.124994 
1.996756 1.707608 -1.275787 
-0.737944 1.764759 -1.308382 
0.352339 2.347899 0.112387 
-1.455186 2.352541 -0.144399 
0.552422 1.632008 -1.401258 
-1.235742 2.158447 -0.418205 
-0.522508 2.274237 -0.063210 
0.036772 2.798479 0.381639 
-0.175008 2.194586 -0.279219 
-0.288666 0.642744 -2.877403 
-0.450983 2.117107 -0.250333 
1.442863 2.926182 0.559318 
-1.992877 2.018289 -0.791780 
-0.873901 2.164737 -0.438929 
-1.453730 3.105637 0.776415 
-0.722700 0.690812 -2.766774 
-1.408022 2.147486 -0.022965 
-2.017470 3.803460 1.882233 
-0.245748 1.948179 -0.251844 
-1.415953 2.175001 -0.557701 
-2.477153 4.183221 2.452155 
-1.794110 1.250221 -1.992662 
-0.757978 1.885591 -1.037224 
1.162440 1.778818 -1.169041 
0.962078 1.244488 -2.053980 
1.780928 2.298491 -0.163328 
-0.992890 1.746309 -1.174540 
1.114090 0.685050 -2.854271 
-0.626674 3.383797 1.205192 
-1.559823 4.016071 2.172841 
-0.439150 2.807232 0.477305 
-2.596102 4.158274 2.257856 
2.264800 2.564071 0.214581 
1.927766 2.481365 -0.077639 
1.768337 2.194031 -0.520699 
-2.196928 2.703680 0.603016 
1.429137 1.746319 -1.215072 
2.349099 2.000528 -0.843023 
-0.246178 1.171170 -2.004867 
2.063880 2.195265 -0.274458 
-1.428981 1.698988 -1.063535 
-1.739888 2.648319 0.173408 
-2.806332 2.805504 0.011825 
-0.682134 2.406695 -0.202416 
0.963162 1.439118 -1.929448 
1.045894 2.700861 0.564072 
0.896639 2.254445 -0.097694 
-0.006804 2.622644 0.138179 
2.481134 2.077068 -0.726622 
0.250895 0.806548 -2.666148 
-0.927222 0.689525 -2.907094 
1.028569 1.765798 -0.869534 
-0.292975 1.703986 -1.279055 
-3.054081 3.128753 0.772488 
-0.441525 2.203942 -0.659586 
0.518967 2.122288 -0.630200 
-0.698488 2.470516 -0.102742 
1.811549 1.446082 -1.893422 
-1.763651 4.026966 2.197434 
-0.729010 0.562389 -2.798766 
-0.370831 1.869838 -0.795790 
-0.130021 0.608512 -2.921532 
-0.080503 1.571322 -1.321138 
0.502659 2.099472 -0.668054 
1.562306 1.515471 -1.570927 
-0.412774 2.120101 -0.547909 
1.455262 3.223350 0.973440 
0.328425 2.285793 -0.044393 
-0.673355 1.395603 -1.724617 
2.234471 3.001123 0.539574 
1.420585 2.159414 -0.340083 
1.085688 3.069805 0.426103 
0.399540 2.982089 0.639011 
0.869404 1.721252 -1.232621 
-1.476341 1.840370 -0.838342 
-1.719849 1.245295 -1.977414 
-0.504739 2.035953 -0.759912 
1.511590 2.527931 0.045245 
0.071946 1.549845 -1.251293 
-0.327649 1.624499 -1.005010 
-1.281895 2.922346 0.646488 
1.896932 2.244267 -0.254001 
0.607797 2.070602 -0.163226 
0.466281 2.299238 -0.054135 
-2.428661 3.409428 1.083454 
-0.442605 3.355747 1.185498 
2.545083 1.558035 -1.522166 
-0.074334 1.472003 -1.520856 
-0.837776 1.161092 -1.896284 
-0.820043 2.459541 -0.114295 
-0.699511 0.575281 -2.759673 
-1.711276 1.304867 -1.465564 
-2.167680 3.689889 1.742324 
-0.347519 2.337196 -0.294537 
-3.156845 3.543185 1.587940 
-1.000089 1.621010 -1.233648 
1.994751 1.691713 -1.305465 
1.398210 2.245883 -0.968226 
-1.239678 2.640377 0.051312 
-1.166264 2.968006 0.629184 
-1.161322 2.529325 0.159958 
-2.373344 3.147973 1.415516 
-1.653986 4.042173 2.213497 
1.870459 2.139772 -0.372139 
-0.855629 2.139174 -0.501468 
-2.798749 4.430509 2.832474 
-0.720093 0.573736 -2.984959 
1.612584 1.554981 -1.546633 
0.003165 1.155609 -1.684487 
2.406750 2.275680 -0.392449 
0.595231 1.750439 -1.219518 
0.758977 2.456119 -0.110542 
-0.881698 1.426911 -1.362383 
0.515813 2.622157 0.108159 
-0.072459 0.904013 -2.186729 
-0.351274 0.694194 -2.613322 
0.646894 2.733284 0.108519 
-0.139587 1.728203 -1.373590 
1.114480 2.831455 0.590416 
-0.177244 2.052033 -0.331395 
-0.897759 2.087363 -0.348061 
-1.074312 2.440283 0.013772 
1.058260 2.084560 -0.416860 
0.828440 2.075073 -0.722899 
1.361251 0.972989 -2.429641 
0.623651 1.446075 -1.680288 
-0.338344 3.490287 1.369457 
-0.030064 1.658878 -0.852242 
2.052053 2.340002 -0.310670 
1.332273 2.223207 -0.542615 
2.570402 2.404709 -0.052274 
-0.048746 1.605996 -1.418150 
-0.998449 1.452677 -1.753969 
-2.103319 3.527943 1.487272 
0.932118 1.383706 -1.213309 
2.049717 2.913469 0.531822 
-1.059259 2.772115 0.245560 
-1.401212 1.700080 -1.239154 
0.577184 1.522200 -1.840705 
0.152729 1.896686 -0.806537 
1.551156 2.803721 0.509439 
2.302196 2.127230 -0.674473 
1.245240 1.172365 -2.081372 
2.328437 2.201490 -0.526519 
0.003999 1.967055 -0.463325 
1.358625 2.344824 -0.894727 
-1.044262 1.200735 -1.897143 
1.968081 2.047009 -0.760720 
-0.005199 1.036180 -2.296162 
1.794870 1.755927 -1.199760 
-1.518346 1.606276 -1.185376 
0.214150 1.865457 -1.022350 
0.121882 2.281907 0.143696 
-1.587363 1.664395 -1.168782 
