1.773858 2.487102 -0.299933 
0.273908 1.359789 -1.945124 
0.848535 2.002417 -1.362976 
0.101645 0.665779 -2.306099 
-0.334155 0.856702 -1.647581 
0.734060 1.714987 0.686382 
1.652330 2.042006 1.078437 
0.739446 1.774191 -1.573792 
-0.297233 0.699400 -1.871293 
0.719690 1.923875 -1.341368 
2.354638 2.675760 0.189361 
1.329008 2.315892 -0.916190 
0.583695 1.473211 -2.315565 
-0.354320 0.624362 -1.828391 
0.821193 1.830155 0.283297 
-0.392174 1.329371 -1.084007 
2.257930 2.275433 1.100322 
1.817257 2.511764 -0.326922 
0.856668 1.769384 0.719406 
-0.020311 1.099028 -1.916244 
-0.052587 1.424399 -1.065609 
2.949040 2.611325 1.259524 
0.097249 1.423366 -1.312415 
0.730442 1.487232 -2.459686 
3.054425 2.603951 1.431179 
0.225685 0.882680 -2.265983 
0.481539 1.742244 -0.422251 
-0.043977 1.371424 -0.329098 
0.776431 1.871384 -0.099683 
0.746519 1.982852 -0.966274 
2.358500 2.675965 0.104300 
2.405533 2.700391 0.123643 
0.612289 1.780372 -0.170606 
0.737891 1.925929 -1.407794 
1.697458 2.379095 -0.850446 
0.679850 1.439343 -2.629097 
0.105592 1.261211 -1.867064 
0.750621 1.515085 -2.571807 
0.806217 1.561257 -2.589196 
-0.036227 1.385222 -0.353001 
0.193770 1.314219 -1.878288 
0.436609 1.267778 -2.262507 
-0.163390 1.225753 -1.313814 
1.470967 1.870187 1.347226 
0.825695 2.033626 -1.279665 
-0.061860 0.789784 -1.956774 
2.849224 2.655577 0.970367 
0.898998 1.878228 0.233327 
-0.223463 1.310212 -0.592674 
2.663291 2.312278 1.760506 
0.349536 1.390092 -2.083679 
1.804057 2.399029 0.100961 
0.748308 1.875256 -0.179356 
0.463689 1.506744 -2.021259 
0.910278 1.890805 0.454476 
-0.155143 0.977979 -1.783787 
-0.096482 0.781568 -1.873389 
0.936432 1.920577 -0.147392 
0.913522 1.955458 -0.227616 
-0.157127 1.331193 -1.059200 
0.904627 1.842784 0.473778 
-0.134790 1.374371 -0.629148 
3.289172 2.174552 2.126144 
0.009784 1.010557 -1.850464 
2.648016 2.274842 1.839437 
-0.182799 1.327660 -0.528358 
-0.123771 0.657942 -2.074986 
-0.178107 0.827155 -2.013394 
1.160022 2.057799 0.252643 
-0.293995 1.272666 -0.748688 
3.040817 2.458171 1.864577 
0.959746 1.778186 0.823849 
0.001765 1.163375 -1.691507 
2.221405 2.290576 1.478563 
2.206977 2.221236 1.348321 
4.196745 2.486368 3.537346 
1.830639 2.128396 1.197361 
-0.146322 0.801382 -1.822907 
1.203546 2.128011 -1.892360 
2.807075 2.408664 2.041233 
0.034546 1.486188 -0.464461 
1.126539 2.173180 -0.526910 
1.109671 2.231310 -1.178676 
0.238080 0.810771 -2.354096 
1.197644 1.982364 0.002887 
0.543085 1.629995 0.402938 
1.631668 2.012543 1.147055 
2.757801 2.229422 2.206357 
2.196060 2.624983 0.021214 
0.456171 1.314107 -2.221224 
-0.003530 1.037201 -2.060870 
0.208602 1.480683 -1.574393 
1.849638 2.578721 -0.695671 
2.283963 2.505501 0.566128 
0.047051 0.919245 -1.940964 
-0.093501 1.060059 -1.725613 
0.616093 1.883993 -0.836815 
2.447551 2.685693 0.169459 
0.194416 0.735294 -2.358052 
-0.136751 1.369611 -0.972785 
2.464867 2.546718 1.550941 
1.197351 2.180469 -0.379184 
2.060851 2.322245 0.464539 
1.743589 2.338999 0.208765 
1.395115 2.342964 -0.707565 
2.673603 2.695935 0.573610 
0.457770 1.616566 0.161061 
1.567545 2.453218 -0.668931 
1.129645 2.174683 -1.473175 
2.803449 2.596478 1.074051 
1.163118 1.943770 0.659131 
-0.028278 1.073103 -1.866552 
0.433946 1.777564 -1.041373 
2.855165 2.625576 1.079634 
1.221294 2.083174 -0.662514 
0.445116 1.565515 0.340695 
0.497487 1.520979 -2.090430 
1.436120 2.299696 -1.066772 
1.753288 2.519807 -0.662077 
-0.322146 1.151683 -1.213486 
2.131686 2.636112 -0.204400 
1.142452 2.146579 -0.304476 
1.520940 2.421009 -1.253058 
1.741890 2.549943 -1.056171 
0.904553 2.042402 -0.601591 
0.464133 1.577650 0.377338 
2.861796 2.563290 1.278140 
0.246273 1.136049 -2.064060 
2.246823 2.200403 1.469392 
0.036539 1.397260 -0.209894 
3.139799 2.381221 2.034273 
0.589126 1.632070 0.508952 
0.331916 1.368396 -1.999778 
0.632447 1.665947 0.561800 
-0.107426 1.388696 -1.108013 
2.888533 2.478522 1.273328 
1.055055 1.790614 -2.531991 
2.486618 2.688742 0.297148 
2.593182 2.633636 0.653536 
1.319869 2.157379 0.021183 
-0.239857 1.252528 -1.165275 
1.563588 2.051605 0.922310 
0.619083 1.863313 -1.133422 
-0.016130 0.584083 -2.158834 
3.120430 2.430647 2.081705 
2.636363 2.179683 2.130047 
1.657056 2.496765 -0.750827 
3.044974 2.423565 1.990208 
0.199400 1.612621 -1.291075 
1.209318 1.968149 0.644967 
2.978647 2.321033 2.221891 
2.603573 2.342306 1.550337 
1.410148 1.989539 0.712914 
-0.191291 0.824773 -1.915060 
3.495205 2.621337 2.029670 
1.922588 2.204293 1.348089 
3.325307 2.355284 2.626511 
2.566708 2.706585 0.449975 
0.845335 1.989900 -0.475601 
0.255257 1.526065 -0.094855 
1.649098 2.495378 -0.891567 
0.807850 1.956468 -0.113071 
2.316195 2.543525 0.501457 
0.871023 1.901539 0.045255 
-0.020274 1.402928 -1.331207 
1.723990 2.522878 -0.850963 
0.597824 1.863994 -0.925691 
-0.007840 1.245502 -1.475298 
0.544843 1.523250 -2.149796 
1.781858 2.344875 0.980706 
2.072407 2.347609 0.756443 
-0.361679 1.115493 -1.162112 
2.861679 2.468871 1.569724 
1.069108 1.901479 0.002267 
0.304307 1.482208 -1.776351 
0.328813 1.397020 -1.936641 
2.675443 2.368632 1.595318 
0.216221 1.764023 -0.870646 
2.467491 2.524434 0.823029 
1.664260 2.438075 -0.364947 
1.184454 1.795034 1.121405 
2.939852 2.517803 1.518959 
0.170875 1.248207 -1.878030 
1.787919 2.048225 1.256090 
0.508528 1.605713 0.401444 
0.923318 1.894246 0.208961 
2.035713 2.556154 -0.069925 
0.878758 2.042367 -0.974509 
1.470843 2.286339 -0.160103 
0.567847 1.243982 -2.284937 
2.268888 2.178388 1.562711 
0.256540 1.462522 -1.718299 
0.611249 1.531376 -2.300158 
0.032498 1.298583 -1.484674 
1.460183 2.391316 -1.190077 
2.393878 2.567566 0.548193 
1.827852 2.483160 -0.197647 
0.292502 1.632760 -1.275903 
1.645204 2.499677 -1.013324 
0.376489 1.708950 -1.199416 
-0.156081 1.295054 -1.397018 
1.361676 1.996499 0.516485 
0.082406 1.110567 -1.886485 
3.185235 2.255987 1.999327 
1.682154 2.485550 -0.647779 
2.848629 2.451093 1.606903 
2.839163 2.396986 1.744751 
1.327442 2.300552 -1.266784 
-0.090096 1.062551 -1.851207 
0.383023 1.249010 -2.178139 
3.299740 2.420951 2.405359 
1.818973 2.564390 -0.704587 
3.001770 2.222143 2.555153 
1.673329 2.494733 -0.978532 
2.743968 2.292970 1.934088 
2.907462 2.237995 2.352352 
2.642657 2.111408 2.377912 
2.779097 2.667319 0.833923 
2.159796 2.126908 1.580625 
2.560551 2.420025 1.343409 
1.026549 2.130748 -0.604342 
0.529776 1.735502 -1.591328 
0.876483 2.028964 -0.668505 
2.641465 2.148664 2.241177 
-0.196794 1.267771 -1.389021 
2.861990 2.267078 1.821274 
2.137966 2.138115 1.486296 
2.490276 2.256737 1.661515 
2.533823 2.260997 1.646291 
2.489817 2.168414 1.951659 
2.039345 2.270516 0.963311 
0.953548 1.813031 0.738914 
3.250371 2.699983 2.110152 
1.149187 1.772436 0.981070 
2.300614 2.157137 1.701804 
1.928410 2.101877 1.317163 
-0.167344 0.907160 -1.859916 
3.391305 2.698868 2.014863 
3.024711 2.287106 2.387392 
1.092378 2.138429 -1.502847 
0.051795 1.460140 -0.306346 
0.932975 1.587477 -2.719579 
1.681171 2.249943 0.430084 
2.779264 2.635565 0.919563 
0.971467 1.911305 0.281890 
2.173080 2.217740 1.113423 
-0.018709 1.439979 -0.545003 
1.519276 2.183841 0.370577 
0.523137 1.575536 -2.013355 
2.130591 2.103715 1.605340 
-0.267589 1.252902 -1.056435 
2.375100 2.177926 1.746964 
1.361179 1.980860 0.862638 
0.634351 1.556331 -2.257499 
-0.165106 0.996473 -1.576792 
0.922490 1.657829 -2.589864 
0.930907 2.032018 -0.412175 
0.481953 1.455885 -2.168473 
0.098340 1.469568 -0.337084 
1.591676 2.118306 0.743710 
-0.004694 1.385952 -0.275021 
0.502409 1.668860 -0.044085 
0.701607 1.706139 -2.060348 
1.912555 2.397326 0.301773 
2.426203 2.556489 0.641443 
3.072118 2.174307 2.788582 
0.652345 1.892064 -0.783661 
1.049990 1.686091 -2.763060 
0.770704 1.808716 0.219921 
2.337900 2.367012 0.666044 
1.177040 1.970839 -0.062886 
2.463660 2.696018 0.215290 
2.030364 2.517193 0.046449 
3.264028 2.649594 1.614826 
3.220549 2.630250 1.640904 
-0.384249 1.060225 -1.293590 
0.101426 1.518028 -0.390855 
2.724253 2.314386 1.833958 
2.305258 2.695888 0.174496 
0.997699 1.948711 0.167050 
2.255423 2.211689 1.391343 
3.155654 2.698654 1.292215 
2.472107 2.707149 0.299870 
1.570911 2.304076 0.014163 
0.467720 1.700699 -1.549519 
1.911997 2.136602 1.335565 
0.737875 1.997610 -0.769125 
1.235880 2.082426 0.288738 
-0.308322 1.221235 -1.069929 
1.954110 2.427121 0.259840 
1.163088 1.800210 1.086433 
0.592645 1.848414 -0.632839 
-0.133013 1.144583 -1.524326 
1.003371 1.911565 0.429369 
2.886833 2.337430 2.034787 
3.223141 2.638419 1.584169 
3.004101 2.578599 1.574171 
3.346361 2.533744 2.097530 
1.263332 1.804908 1.211390 
2.162258 2.181352 1.402632 
1.285347 1.889599 1.020010 
2.063755 2.127113 1.437482 
1.476681 1.952819 1.109982 
3.435131 2.535872 2.226233 
0.907418 2.031756 -0.505261 
1.444960 2.380217 -0.812843 
1.556652 2.029715 0.982189 
-0.342408 1.134868 -1.210231 
1.701168 2.290452 0.302680 
2.000918 2.229539 1.029530 
1.052380 1.920247 -2.213717 
2.645974 2.717575 0.469907 
0.985227 2.108802 -0.718412 
0.508060 1.687452 -0.119825 
0.337118 1.563345 -1.647642 
2.261427 2.467894 0.645692 
2.824036 2.578615 1.175223 
0.129331 1.351995 -1.688798 
0.848729 2.007854 -0.599779 
0.084098 0.486878 -2.336665 
0.579625 1.305413 -2.501823 
0.143062 1.468892 -1.389884 
2.655339 2.220174 2.030058 
0.345397 1.585511 -1.581112 
0.476627 1.399074 -2.189670 
0.442719 1.312435 -2.196467 
0.909507 2.044774 -1.227946 
0.978793 1.776675 0.889462 
1.872346 2.356499 0.384942 
2.099392 2.391275 0.635372 
0.718774 1.728095 0.488356 
0.403365 1.524246 0.285412 
2.648587 2.205064 2.081820 
0.008674 1.194609 -1.849577 
0.788497 1.799287 0.383695 
1.856563 2.438592 0.049310 
1.862974 2.568082 -0.499244 
0.209149 1.415166 -1.712109 
1.036572 2.084251 -1.630074 
1.416958 2.253983 -0.141948 
2.333580 2.503698 0.648878 
1.102929 1.896693 0.378825 
2.831461 2.817729 1.073502 
-0.001700 1.426691 -1.017918 
0.524297 1.324460 -2.542121 
2.556082 2.249961 1.778591 
0.703553 1.792675 -1.838045 
0.994797 1.697896 -2.652264 
1.327341 2.106292 0.275490 
0.718312 2.118548 -0.870129 
3.005760 2.964853 1.311306 
1.376931 2.224971 -0.104461 
0.741139 1.761389 0.415099 
1.079850 2.138034 -0.113019 
0.797454 1.815904 -1.005773 
0.103482 1.536123 -0.908475 
2.904697 2.377923 1.931645 
2.709490 2.213146 2.191429 
2.804546 2.699751 0.778378 
2.748305 2.227957 2.145325 
2.133988 2.684826 -0.245074 
1.483340 2.271009 -0.025272 
0.993459 1.873023 0.616475 
1.213819 1.789828 1.108763 
0.694362 1.451786 -2.600791 
0.037435 1.067246 -1.871177 
3.214670 2.509608 1.956959 
1.834988 2.183633 1.113474 
2.600724 2.233591 1.913880 
2.928176 2.471182 1.659017 
3.552204 2.554471 2.353374 
1.981846 2.070849 1.478796 
2.162651 2.530174 0.275184 
3.086046 2.548585 1.659797 
1.425311 2.137437 0.346372 
0.657669 1.856636 -0.335613 
0.166735 1.467201 -1.462858 
2.055211 2.451158 0.377842 
2.133770 2.381178 0.730994 
-0.323121 1.199129 -1.073799 
2.124162 2.546630 0.139498 
0.151687 0.511455 -1.942411 
1.469025 2.404502 -1.070792 
2.455750 2.656904 0.346061 
0.464649 1.771117 -1.149139 
1.155365 2.080916 0.007504 
0.848520 1.734665 0.807313 
1.620964 2.672707 -0.991871 
0.405993 1.098198 -2.370009 
1.379914 2.163087 0.269348 
1.106205 2.146738 -0.427626 
0.106202 1.387260 -1.551391 
1.968257 2.174411 1.150451 
0.480189 1.419860 -2.223257 
-0.027387 1.403171 -0.643567 
2.112353 2.658081 -0.328875 
0.477736 1.615916 0.250091 
1.979988 2.305944 0.740206 
1.937888 2.605010 -0.501220 
0.072306 1.405507 -0.151275 
0.251285 1.491545 -1.636079 
1.702944 2.337097 0.107057 
-0.286659 1.053965 -1.550299 
-0.133029 0.663913 -1.919108 
0.212562 1.075945 -2.162588 
2.496500 2.150380 2.008708 
-0.061204 1.359647 -1.500327 
-0.241075 1.302512 -0.668501 
-0.418770 0.642650 -1.712795 
0.493855 1.783710 -1.248463 
-0.082814 1.391168 -0.908624 
2.933895 2.674703 1.049147 
2.720279 2.140975 2.393595 
1.330446 2.209745 -0.150762 
2.803934 2.438395 1.579436 
0.120618 1.422141 -0.075182 
0.433718 1.085385 -2.433974 
2.430164 2.169726 1.848777 
-0.400957 1.031559 -1.270310 
0.458864 1.387015 -2.181238 
2.630896 2.229054 1.994645 
3.421055 2.634841 1.920903 
1.194311 1.914819 0.817606 
3.125833 2.637632 1.443351 
0.467676 1.770892 -1.310622 
1.333231 2.308975 -0.835893 
0.972824 1.893335 -2.121587 
1.046171 1.924017 0.517181 
2.460644 2.696203 0.222885 
0.941731 1.999334 -1.508857 
0.180747 0.785134 -2.464665 
2.512623 2.200932 1.872004 
3.231273 2.801139 1.660554 
0.519090 1.727897 -1.556949 
1.375818 1.827124 1.314288 
3.010782 2.488177 1.722918 
3.196163 2.645575 1.607658 
1.941591 2.324606 1.480352 
0.033057 1.278550 -1.692827 
3.642602 2.647025 2.177100 
1.783392 2.034858 1.294403 
3.268596 2.459026 2.250698 
0.875669 1.565261 -2.702504 
0.512749 1.605904 -1.932943 
2.864997 2.682380 0.910937 
1.276966 2.034508 -2.399141 
0.433537 1.306536 -2.269510 
0.500108 1.924473 -0.868874 
0.392484 1.501061 -1.955869 
0.221900 1.499798 -1.517955 
3.207421 2.555510 1.827478 
0.262625 0.640462 -2.367395 
1.137544 2.166095 -1.582781 
0.313003 1.329058 -2.113136 
0.189997 1.446047 -1.596148 
0.862261 1.968441 -0.260277 
0.303274 0.838882 -2.434891 
-0.170129 1.363550 -0.914120 
-0.027606 1.242021 -1.689280 
1.493682 2.199257 0.264253 
3.219786 2.427465 2.025900 
-0.265760 1.184048 -1.262982 
2.345068 2.632900 0.211847 
0.113986 1.156165 -1.852534 
1.712688 2.031522 1.198405 
2.180184 2.631235 -0.080030 
2.096704 2.607718 -0.148942 
2.274689 2.467132 0.712366 
1.409018 2.161831 0.211796 
2.113742 2.634363 -0.233012 
2.984864 2.652986 1.189965 
1.590713 2.193315 0.465812 
1.041354 2.125391 -0.563326 
0.776861 1.788777 -0.253685 
0.455459 1.574144 0.358651 
2.057891 2.296201 0.906260 
2.182729 2.473794 0.517879 
3.529609 2.618223 2.112774 
1.510282 2.424040 -1.161568 
1.077453 1.691961 -2.749117 
2.600219 2.386267 1.878262 
1.686214 2.151938 0.779077 
2.968698 2.167000 2.668405 
1.648326 1.805845 1.319395 
0.413778 1.447614 -2.003375 
0.553505 1.626475 0.454229 
3.233108 2.282258 2.723129 
1.021538 2.145349 -1.813332 
0.600793 1.733331 -0.012250 
1.355355 2.322545 -1.211506 
0.246685 1.318213 -2.060835 
1.111003 1.859344 0.873129 
-0.353820 0.780920 -1.700778 
2.136162 2.088823 1.641222 
3.474943 2.421518 2.622840 
1.844792 2.042726 1.362042 
1.611775 2.387499 -0.041463 
1.336228 2.251861 -0.352247 
1.269015 2.202565 -0.280199 
1.421284 2.243619 -0.080142 
0.899604 2.000477 -1.558747 
3.333162 2.616390 1.841543 
1.181802 2.204801 -1.491224 
0.763961 1.967279 -1.077851 
3.098402 2.360597 2.253272 
1.662114 2.191525 0.520654 
1.743733 2.438984 -0.198942 
0.205443 1.585620 -0.485742 
0.476947 1.476383 -0.352693 
2.820770 2.348823 1.875843 
2.445276 2.115883 2.036086 
0.035091 1.517401 -0.631208 
1.815687 2.275357 0.567066 
0.991746 2.109327 -0.391077 
1.192553 2.200890 -0.482382 
1.198202 2.103910 -1.960466 
0.957720 2.075340 -0.568289 
1.419121 2.188252 0.142530 
0.088750 1.442053 -1.684769 
0.222566 1.595829 -1.184741 
0.728180 1.929986 -0.651288 
0.734251 1.937898 -1.214352 
-0.335996 0.894413 -1.696884 
1.159863 1.979058 -2.271580 
2.036290 2.463134 0.277057 
0.237470 1.220306 -2.018368 
1.991102 2.341011 0.640647 
1.954222 2.084968 1.386733 
1.337917 2.141018 0.179243 
0.702843 1.940832 -0.700078 
1.421904 2.214671 -1.856851 
2.720364 2.681189 1.360924 
1.317818 2.242899 -1.745570 
0.722087 1.849364 -1.706842 
-0.039323 1.190663 -1.591296 
1.059642 2.075918 -0.340391 
0.360224 1.220065 -2.222217 
1.300430 2.197387 -1.860303 
1.314915 2.292642 -1.384585 
0.988190 2.076973 -1.445452 
0.077857 0.688356 -2.237300 
0.332897 1.693718 -0.777198 
3.483801 2.509192 2.375871 
1.113925 2.175263 -1.202040 
1.413481 2.280501 -0.303157 
0.803957 2.102023 -1.083411 
3.159909 2.503008 1.889096 
2.719221 2.188817 1.815074 
1.284072 2.272305 -1.350409 
1.708207 2.531431 -0.983715 
0.544512 1.823096 -0.715707 
2.480133 2.166850 1.936945 
0.210259 1.223282 -1.951127 
0.482681 1.354236 -2.210473 
3.315633 2.546689 2.011008 
2.965662 2.445618 1.793390 
2.075987 2.682300 -0.336676 
2.744037 2.157891 2.317063 
3.418715 2.599517 2.005534 
3.539615 2.597495 2.168961 
1.457026 2.110792 0.805753 
3.467686 2.651031 1.910862 
2.067457 2.151951 1.309878 
2.185946 2.166539 1.489824 
-0.144797 0.886941 -1.737356 
3.405079 2.538935 2.172052 
-0.317654 0.537885 -1.924165 
3.208688 2.615132 1.629108 
0.250737 0.960641 -2.253179 
1.142082 2.095983 -0.107960 
0.429623 1.726101 -0.518633 
1.711691 2.287029 0.363196 
-0.119548 0.574993 -2.108522 
0.265273 1.142416 -2.153635 
2.425213 2.597041 0.482004 
1.057612 2.008321 -1.970794 
3.248106 2.624583 1.671032 
1.304538 1.960829 0.837502 
1.261579 2.154535 -0.427238 
0.909011 1.820578 0.651264 
3.269472 2.560320 1.902678 
1.000473 2.117426 -0.779765 
0.686242 1.927069 -0.835631 
2.520483 2.644798 0.496551 
0.540400 1.759115 -1.609533 
-0.353744 1.056903 -1.363235 
1.181113 2.216821 -1.245480 
0.967995 2.027385 -0.084507 
1.223108 2.245459 -1.308609 
1.133623 2.033041 -2.083162 
3.192175 2.456889 2.108336 
1.541641 2.360530 -0.292124 
2.833270 2.258171 2.191828 
3.114270 2.721084 1.170405 
0.611570 1.664082 0.464301 
2.510083 2.230134 1.724324 
1.452869 2.171304 0.289998 
0.258266 0.790569 -2.409547 
0.527136 1.361147 -2.332760 
1.076874 1.707930 -2.754417 
2.581150 2.410967 1.898581 
2.000706 2.202186 1.096706 
1.030706 2.058758 -0.130842 
0.609081 1.652692 0.514351 
1.928263 2.612285 -0.592804 
0.461079 1.583618 0.345929 
0.109792 0.955353 -2.163888 
1.059212 2.397051 -0.541309 
0.401782 1.133303 -2.394232 
2.711440 2.372964 2.034098 
0.818521 1.775316 0.630460 
0.715173 2.225293 -1.083153 
3.389864 2.406774 2.545036 
1.609901 2.397953 -0.323821 
3.150932 2.655586 1.352108 
0.854895 2.018801 -1.208022 
1.305786 2.279423 -0.426700 
0.033883 0.701706 -2.212994 
3.456667 2.579054 2.116137 
2.450839 2.643355 0.407092 
1.180992 1.984036 0.451930 
0.960427 1.996412 -1.381718 
1.617779 1.973847 1.252116 
-0.517994 0.754791 -2.036442 
-0.178547 0.572649 -1.905717 
1.205270 2.246337 -0.989652 
1.030044 1.850073 0.759089 
1.005871 2.117019 -1.147151 
0.776686 1.732957 0.697938 
1.022000 2.125288 -0.732180 
0.881075 1.818472 -2.142082 
2.646791 2.683046 0.581579 
0.546828 1.804682 -1.338466 
1.167249 2.199619 -1.403182 
2.323792 2.212208 1.555847 
2.059589 2.622809 -0.284333 
-0.348322 0.691466 -1.940525 
-0.115577 0.933304 -1.920699 
3.110841 2.520704 1.774038 
2.535658 2.055134 2.259468 
0.304166 1.669756 -0.870233 
-0.256194 1.142569 -1.928171 
1.116235 1.769050 0.969094 
2.005825 2.118900 1.359236 
3.245996 2.464356 2.148855 
0.468174 1.752579 -0.547886 
0.165372 0.792039 -2.298603 
2.980093 2.672404 1.127056 
1.798035 2.255058 0.617590 
1.037720 1.781711 0.955301 
3.313540 2.235162 2.945978 
0.532481 1.657649 0.179697 
3.046649 2.373362 2.132565 
0.163450 1.548740 -0.311529 
2.271160 2.344853 1.067558 
3.002427 2.408921 1.932610 
1.895154 2.166731 1.019655 
1.161885 2.239652 -1.252591 
1.073660 2.124820 -0.512616 
1.431587 2.350933 -0.398814 
-0.074906 1.182653 -1.473378 
0.707974 1.902746 -1.271966 
2.004522 2.505970 0.437848 
0.401104 1.328805 -2.173374 
-0.174866 0.600993 -2.051894 
-0.030190 1.210584 -1.500738 
0.915026 1.969227 -0.135410 
2.159377 2.654891 -0.230198 
0.257798 1.631603 -0.756797 
1.182355 2.062735 0.134845 
1.652297 2.516324 0.205536 
2.512335 2.419067 1.193702 
0.506157 1.317655 -2.319158 
2.972139 2.290137 2.283498 
0.988702 1.921632 0.498122 
0.130873 0.726052 -2.288177 
2.816526 2.186480 2.389141 
1.871243 2.127563 1.146322 
0.864364 2.098602 -0.768020 
2.083526 2.230748 1.146197 
-0.018476 1.265827 -1.739458 
1.767223 2.084557 1.118215 
0.097324 0.534873 -2.344164 
0.740949 1.879167 -1.313262 
2.881518 2.390226 1.828606 
1.939905 2.200201 1.022650 
3.146560 2.282944 2.593246 
0.826923 2.003159 -1.173513 
0.775846 1.750290 0.564210 
0.175627 1.582472 -0.933050 
3.518046 2.650675 1.987362 
0.272250 1.638774 -0.692356 
0.506463 1.605703 0.430670 
1.723461 2.449806 -0.266114 
1.222736 2.244097 -0.455732 
2.808255 2.214115 2.283042 
3.001074 2.687160 1.026312 
1.295116 2.484653 -0.816933 
3.577620 2.500272 2.549253 
1.819260 1.932574 1.675805 
1.664176 2.467717 -0.571495 
2.518980 2.042048 2.355286 
1.230313 1.808135 1.161223 
-0.457161 0.639757 -1.658255 
2.310441 2.188834 1.621561 
2.392998 2.222016 1.594307 
-0.265759 1.290609 -0.816859 
-0.075408 1.425212 -0.594794 
1.197849 2.222279 -1.374350 
0.409026 1.712953 -1.213834 
1.992131 1.916387 1.785709 
0.284930 1.292388 -2.018326 
2.603052 2.424884 1.335294 
0.488288 1.494121 -2.093244 
1.799248 2.521710 -0.454195 
3.325589 2.301226 2.811219 
0.909117 1.908706 -1.965665 
1.277146 2.047764 -2.296564 
2.080137 2.400045 0.577757 
2.744643 2.098359 2.527501 
-0.158975 1.321484 -0.971038 
3.522528 2.409615 2.760918 
1.785064 2.323743 0.343331 
2.908124 2.252382 2.114670 
0.915770 1.722324 0.807661 
1.635533 2.328254 0.049732 
1.258723 1.843663 -2.495833 
1.824230 2.092653 1.202026 
1.747872 2.393318 0.010006 
0.552058 1.827234 -0.840257 
1.263007 1.925397 0.885773 
1.730494 2.426548 -0.149139 
2.884149 2.261061 2.258976 
-0.350518 1.144011 -1.181220 
1.105356 2.178969 -1.021135 
1.628052 2.381720 -0.203800 
2.697147 2.487534 1.270601 
0.396251 0.882689 -2.176199 
3.269400 2.599636 1.764423 
0.299403 1.639699 -0.507822 
0.312776 1.713626 -0.644592 
3.151408 2.464129 2.010842 
-0.117405 1.351007 -0.430918 
1.928645 2.415897 0.537903 
1.613484 2.362331 0.382960 
3.141097 2.648057 1.350254 
1.802772 2.374272 0.161152 
0.948639 2.079604 -1.163269 
1.222822 2.030188 0.410132 
2.260982 2.158376 1.622851 
3.225458 2.406733 2.315046 
1.425305 1.987152 0.935997 
1.109711 2.111789 -1.703232 
2.082230 2.506094 0.205415 
1.248465 2.256076 -1.173796 
0.378933 1.791036 -0.630631 
2.216948 1.978832 2.018101 
1.567102 2.414071 -0.518175 
1.857854 2.294819 -0.245771 
1.755075 2.323799 -0.294677 
0.138146 1.401054 -1.592051 
2.968949 2.243714 2.443659 
2.489881 2.226998 2.113324 
0.131273 1.176670 -2.094671 
0.822130 1.905966 -1.729073 
0.702817 1.515841 -2.481315 
2.426345 1.894837 1.370148 
2.206196 2.117111 1.674809 
0.699523 1.683823 0.638699 
1.732209 1.915676 1.590311 
2.909851 2.354274 1.957846 
1.075166 1.794063 0.973537 
-0.241144 1.179744 -1.471852 
2.041049 2.047445 1.650603 
2.367531 2.119917 1.913136 
1.361087 2.246058 -0.233876 
1.891278 2.439971 -0.205671 
1.625845 2.525400 -0.455745 
3.091553 2.378510 2.130109 
0.385117 1.703979 -0.213801 
-0.287903 0.915929 -1.655229 
3.336920 2.501034 2.181874 
0.626758 1.818176 -0.329138 
2.072283 1.989157 1.888434 
1.313062 1.832729 1.205711 
0.088760 1.287113 -1.879435 
2.356251 2.295507 1.830705 
0.411713 1.427152 -2.088376 
0.630178 1.869983 -0.572041 
1.844114 2.306739 0.503474 
1.037573 2.274482 -0.249945 
2.859785 2.251814 2.297115 
0.729750 1.959658 -0.659912 
2.296717 2.000620 2.166662 
2.109463 2.344961 1.618452 
0.566005 1.817194 -1.297300 
0.872680 1.841622 0.011546 
0.309360 1.620159 -0.402879 
1.089261 1.744307 -2.685435 
-0.096375 1.003025 -1.680618 
3.118320 2.697947 1.224353 
3.493892 2.469276 2.524589 
2.297338 2.414051 0.894969 
1.253281 2.260447 -0.862931 
0.083000 1.441363 -0.232769 
2.672400 2.726604 0.520610 
0.979577 1.885323 0.498365 
2.391622 2.367812 1.181684 
3.161279 2.555760 1.730167 
-0.343676 1.332206 -0.633863 
2.166346 2.690015 -0.320182 
1.238187 2.057325 -2.157821 
2.986754 2.282144 2.314486 
2.005795 1.937699 1.915017 
1.257759 2.146403 -1.968229 
2.914811 2.733708 0.854636 
2.713606 2.198061 2.192170 
0.449019 1.505645 -2.012088 
0.640890 1.824426 -1.523579 
-0.314614 1.346271 -0.652943 
1.651310 2.127618 0.810253 
1.388401 2.099439 0.417882 
2.356303 2.408336 1.011852 
2.997273 2.722551 0.999263 
1.597859 2.497477 -0.753243 
1.703888 2.571716 -0.746958 
2.816534 2.373083 1.788494 
0.514799 1.745817 -1.536177 
1.999101 2.561702 -0.164402 
0.118095 1.057972 -2.394109 
0.278975 1.651338 -0.920893 
1.539222 2.436918 -0.887872 
3.330484 2.652835 1.702920 
2.564821 2.201134 1.958448 
0.296451 1.498142 0.162499 
1.719177 2.521203 -0.830118 
1.262145 2.077884 -2.179744 
-0.033307 1.373780 -1.285890 
1.974058 1.944063 1.815264 
0.817228 1.985739 -0.563744 
0.664279 1.910357 -1.262938 
0.476993 1.772041 -0.658691 
1.959763 2.392634 0.417912 
1.534912 2.307313 -0.096592 
0.245197 1.477516 0.096977 
1.324098 2.284013 -1.497050 
-0.137762 1.235697 -1.634125 
3.055490 2.721112 1.086569 
0.909799 2.059984 -0.839417 
0.836139 1.965319 -0.323957 
2.759617 2.266545 2.019672 
-0.200660 1.285298 -1.186458 
1.028921 1.794001 0.902967 
1.981490 2.622570 -0.462675 
0.471388 1.592662 -1.289254 
0.764070 1.708661 0.663867 
1.433873 2.259666 -0.247167 
3.121479 2.698726 1.273974 
0.796832 1.954228 -1.579802 
1.349210 1.896403 1.091184 
0.747837 1.903075 -1.542378 
2.305064 2.338984 1.130818 
0.786414 1.720708 0.736050 
1.750428 2.288285 0.367236 
3.560474 2.560225 2.570924 
3.602973 2.649442 2.122444 
1.375368 2.180746 0.073366 
1.586515 2.308247 -0.239777 
2.155616 2.224062 0.995656 
-0.074380 1.111706 -1.763016 
0.714728 1.511124 -2.509447 
2.110127 2.064445 1.700765 
2.431681 2.137694 1.959503 
2.042077 1.999304 1.883667 
0.536190 1.778712 -0.378963 
3.419517 2.458452 2.014047 
-0.244608 1.154429 -1.525652 
1.548279 1.960832 1.186416 
1.702334 2.076212 1.046082 
0.992070 1.773876 -2.467708 
0.240123 1.527802 -1.864819 
1.039894 1.915523 0.567671 
0.661920 1.602403 -2.211605 
2.179862 2.587578 0.076849 
0.403677 1.727239 -0.627628 
1.551771 2.435784 -1.277211 
0.831383 1.580543 -2.585346 
0.658790 1.665471 0.587597 
-0.086471 1.331743 -1.355439 
1.209382 2.124654 -0.064162 
0.086349 0.994498 -2.037618 
2.554600 2.687577 0.408597 
-0.030641 0.515330 -2.189877 
0.488329 1.766473 -1.193866 
1.931378 2.343542 0.527381 
0.693379 1.747442 0.291899 
-0.148099 1.005739 -1.725306 
1.062869 1.938668 -2.078707 
1.574583 2.222490 0.344711 
-0.206345 1.324016 -0.619564 
2.540997 2.108495 2.240297 
1.138598 1.772925 -2.522263 
2.630540 2.691687 0.529057 
0.642770 1.627551 -2.132228 
1.707663 1.953924 1.423632 
3.066502 2.424177 2.024669 
0.585847 1.843337 -1.190702 
0.121615 1.450546 -0.372711 
0.956689 2.109796 -1.226808 
1.588368 2.440784 -0.683477 
0.265092 1.564412 -0.341744 
1.305738 2.266362 -1.673907 
-0.446909 0.568705 -1.673815 
3.334743 2.342101 2.696059 
1.772568 2.285599 0.455103 
1.122513 1.900181 0.746715 
2.551981 2.161352 2.064121 
3.087419 2.689966 1.291850 
0.648919 1.758346 0.029283 
1.674789 2.231750 0.496978 
0.596563 1.665764 -1.950705 
0.010227 1.393321 -1.145468 
1.118344 1.801413 0.932821 
3.528701 2.368608 2.889461 
3.228843 2.324848 2.591626 
2.549059 2.683135 0.389943 
1.902555 1.980066 1.638439 
-0.434854 0.827273 -1.506963 
1.185078 2.082363 0.070912 
3.401313 2.314520 2.856034 
2.642230 2.644195 0.707180 
2.415261 2.025486 2.260931 
3.165127 2.600837 1.614752 
0.362087 1.567946 0.053019 
0.923565 2.016222 -0.296685 
0.597207 1.632034 -2.027180 
0.001841 1.424703 -1.185999 
3.286055 2.607045 1.659317 
1.581914 2.189162 0.459598 
-0.311318 0.583140 -1.884306 
-0.486718 0.696773 -1.597012 
1.626366 2.423085 -0.358388 
1.944621 1.958123 1.781407 
3.264303 2.221192 2.920996 
1.174606 2.220850 -0.732501 
1.637885 2.489456 -0.869633 
-0.318318 0.801790 -1.786196 
0.329724 1.699192 -1.240284 
1.734033 2.236893 0.552440 
3.154735 2.354614 2.239229 
2.301032 2.377055 1.114892 
-0.153066 1.182812 -1.462619 
1.976253 2.033435 1.594536 
-0.108765 0.744825 -2.026832 
0.566547 1.763938 -0.286916 
3.470165 2.568102 2.162954 
1.549546 2.351346 -0.184721 
3.669651 2.745632 2.519521 
1.451432 1.839226 1.390576 
1.926511 2.137618 1.207894 
3.395656 2.602388 1.997892 
0.715008 1.918959 -1.266542 
1.985574 2.425639 0.339061 
1.202794 2.230035 -0.665762 
0.445209 1.610749 0.106730 
2.103317 2.256418 1.087008 
1.097115 1.797803 -2.543770 
0.996674 1.730171 -2.558848 
-0.258660 0.857384 -1.591606 
2.409547 2.657549 0.269291 
-0.310296 1.228110 -1.009290 
0.057448 1.465151 -1.227136 
2.742495 2.183820 2.283223 
0.202877 1.458782 0.017735 
1.340061 2.051558 0.575246 
0.908356 1.759991 0.834477 
2.872591 2.206709 2.408170 
0.177809 1.544346 -1.276906 
0.296592 1.626865 -1.328111 
0.102342 1.457493 -1.272513 
3.653815 2.508838 2.671339 
1.326332 1.865368 1.152276 
0.758122 1.959681 -0.371832 
0.866073 1.965663 -1.555180 
3.564239 2.649824 2.060855 
0.121568 1.505953 -0.519315 
2.422655 2.472835 0.897780 
0.784627 2.024327 -1.052536 
-0.017918 1.429627 -0.406407 
0.402471 1.602524 -1.703044 
1.434714 2.505176 -0.593750 
0.917376 1.898648 0.110146 
3.511650 2.454508 2.610631 
1.305385 1.817575 1.242504 
1.059623 1.988019 -2.038337 
1.213636 2.249115 -1.493704 
0.584138 1.675766 0.265827 
1.081920 1.912695 -2.286829 
3.033549 2.693342 1.208334 
-0.341104 0.659167 -1.731398 
1.150370 2.202123 -0.791508 
0.702065 2.106211 -1.569638 
1.100320 2.173585 -1.284730 
1.941432 2.594526 -0.576692 
2.840880 2.204158 2.410984 
3.865879 2.579832 2.761350 
3.339815 2.594271 1.922729 
2.597495 2.094726 2.339681 
1.063752 1.888949 0.678785 
0.038217 0.638548 -2.221343 
1.356361 2.080169 0.455627 
1.229683 2.222986 -1.196784 
2.114071 2.356169 0.817770 
-0.270223 1.217435 -1.339906 
2.405639 2.067396 2.113905 
2.035091 2.649904 -0.472509 
-0.342874 1.100371 -1.308058 
2.588856 2.064667 2.400759 
1.463614 2.368029 -0.522626 
0.693580 1.705205 0.629471 
0.001745 1.454444 -1.114516 
1.393537 1.970464 0.944452 
1.906231 2.017449 1.534400 
0.914380 1.788056 0.744610 
1.359881 1.849179 1.242554 
2.004739 1.982055 1.821414 
1.265121 2.264617 -0.216268 
0.186686 1.500283 -0.369045 
3.430370 2.388008 2.688032 
1.363444 2.117956 0.305088 
0.704802 1.777776 0.152254 
1.233991 1.846169 1.077353 
3.604449 2.396934 2.929360 
0.651059 1.832011 -0.984882 
1.466589 2.340413 -0.334697 
1.757361 1.991237 1.394236 
-0.278369 1.280286 -0.591781 
1.274420 1.984543 0.696708 
-0.287919 1.209821 -1.153597 
1.169513 2.270923 -0.942743 
0.964175 2.094888 -0.902353 
0.909132 2.033813 -1.363351 
2.130435 2.672903 -0.347177 
2.584000 2.105185 2.280148 
2.306409 2.109905 1.852384 
0.393810 1.492804 -1.998166 
1.383544 2.335975 -0.843725 
0.717511 1.769000 0.243431 
2.281392 2.549112 0.411125 
0.007182 1.467860 -0.713711 
2.870529 2.350127 1.948843 
3.390597 2.657539 1.790433 
2.303145 2.034200 2.100037 
0.972101 2.098800 -0.992632 
1.503746 2.097773 0.673319 
3.785246 2.510880 2.818286 
2.199852 2.519383 0.359449 
1.878125 2.208946 0.909629 
0.431673 1.745997 -0.935193 
1.033989 2.077608 -0.276319 
2.856644 2.690928 0.890003 
0.011429 1.489664 -1.002643 
0.316314 1.548164 -0.027531 
3.428225 2.599167 2.061422 
2.737139 2.086722 2.480580 
1.954216 2.265514 0.836828 
-0.435943 0.587501 -1.655233 
1.236956 1.890415 0.964348 
3.798363 2.563555 2.792944 
-0.061631 1.357225 -1.105893 
1.599623 2.590610 -0.598369 
-0.370469 1.099509 -1.246910 
0.554912 1.657934 -1.888891 
1.022980 2.116507 -1.323879 
2.372422 2.099373 2.053381 
1.271948 2.028431 0.509023 
0.635060 1.697808 0.342220 
1.860072 2.262178 0.695321 
0.193972 1.197353 -2.093848 
0.602880 1.740323 -1.008093 
3.094817 2.281937 2.500454 
1.122648 2.189932 -0.940183 
1.164325 2.109902 -1.862868 
1.377670 2.323495 -0.595609 
1.258023 2.139243 -1.977202 
1.842313 2.178493 0.941943 
0.570458 1.686702 0.134995 
-0.089480 1.402103 -0.709044 
3.493165 2.544225 2.297505 
3.531868 2.506079 2.453516 
2.993742 2.243782 2.381000 
3.366431 2.652718 1.755183 
1.585491 2.446326 -1.110754 
1.224442 1.784207 1.109037 
0.572639 1.854715 -1.035695 
3.705661 2.599220 2.501892 
0.253837 1.569929 -1.237021 
0.349019 1.630333 -1.447002 
3.417775 2.643671 2.091799 
3.339591 2.462005 2.335581 
0.632631 1.498520 -2.607193 
1.969186 1.992513 1.699472 
3.614897 2.520188 2.593260 
0.747053 2.086544 -0.800153 
2.344320 2.375963 1.081775 
1.039859 1.935240 0.212549 
1.013052 1.922996 0.340525 
3.696502 2.488067 2.770447 
0.454059 1.800453 -0.321177 
1.680250 2.306599 -0.345367 
1.553296 1.880830 1.418656 
1.828301 1.964518 1.578706 
1.159325 1.944070 -2.348926 
0.588750 1.731426 -0.059311 
1.686362 2.422938 0.315314 
0.975025 1.982325 -0.077488 
-0.273060 0.645810 -1.888894 
0.361199 1.684113 -0.569692 
1.481767 2.392761 -0.750243 
-0.090442 0.664057 -1.997151 
2.216121 2.387555 0.852600 
1.665908 2.361112 -1.198049 
1.261095 2.265607 -1.247493 
0.121215 1.525741 -0.723914 
-0.301383 1.258580 -0.882467 
1.803078 2.232983 0.694295 
1.429316 1.870474 1.263680 
1.622416 2.442675 -0.460119 
0.814187 1.794665 0.498159 
1.069193 2.164711 -0.657387 
0.535252 1.673294 0.049588 
1.991731 2.306656 0.572537 
0.390455 1.705991 -1.265455 
0.576342 1.842227 -0.778070 
0.653729 1.838814 -1.555790 
1.139226 2.181770 -1.344743 
3.591126 2.608468 2.177965 
1.310853 2.481168 -0.850251 
2.581361 2.534919 1.117322 
0.248379 1.482442 -1.344931 
2.247818 2.618202 0.095466 
1.428509 2.338232 -0.471437 
0.650682 2.035896 -0.758662 
1.246075 1.950673 0.784096 
0.141346 1.490758 -0.265313 
3.073287 2.323522 2.335500 
0.166591 1.472287 -0.084005 
1.755278 1.913607 1.631828 
1.164102 2.217521 -1.151808 
1.707776 1.808996 1.587641 
0.712145 1.630025 -2.288600 
1.501188 2.407096 -0.838328 
0.045908 1.360815 -1.670933 
1.081080 2.046326 -0.388694 
1.676078 2.128057 0.853406 
3.586500 2.457834 2.697035 
1.716069 2.206618 0.645159 
2.015804 2.335995 0.704253 
1.350822 2.352073 -0.584362 
1.450949 2.312519 -0.350997 
0.645707 1.871484 -1.228306 
1.333108 2.232144 -1.795428 
0.829210 2.010365 -0.825760 
3.415863 2.471620 2.444435 
1.185840 2.115520 0.086226 
-0.275082 0.766301 -1.843829 
1.158824 2.094696 -1.915878 
3.297949 2.261491 2.889503 
0.790747 1.904653 -1.517107 
3.586185 2.360536 3.020618 
-0.427784 0.920382 -1.413917 
-0.372767 1.005167 -1.408590 
0.286899 1.004085 -2.245562 
0.985644 1.821414 -2.346315 
2.100088 2.224825 1.169500 
2.893767 2.133641 2.647960 
3.336974 2.442589 2.447271 
3.247006 2.660386 1.543633 
3.126496 2.248157 2.680533 
3.063118 2.217274 2.663576 
1.610264 2.222903 0.405183 
0.077466 0.792716 -2.182375 
0.696461 1.842167 -0.237988 
0.199292 1.187388 -2.393589 
2.203955 2.324193 1.036795 
3.430934 2.357738 2.788870 
0.839454 2.018059 -1.279420 
1.597568 1.859325 1.542627 
1.853165 1.925121 1.578092 
1.557323 1.847930 1.508914 
1.328050 2.328691 -0.766900 
1.762385 1.953088 1.514280 
2.239386 2.094096 1.804330 
1.143848 2.213189 -1.061417 
0.868730 1.941678 -0.159172 
2.482513 2.111098 2.109716 
0.425578 1.744771 -0.723645 
1.083836 1.859151 0.794356 
0.772063 2.021027 -0.991341 
1.199853 1.969226 -2.339911 
3.214979 2.594359 1.678329 
0.634502 1.848601 -0.402839 
2.207788 2.634420 -0.041126 
0.823052 1.937451 -0.251158 
-0.275430 1.278988 -0.894230 
1.124879 2.182910 -0.738110 
1.223706 2.004109 0.544888 
1.357306 1.805736 1.279608 
3.331081 2.593920 1.841871 
0.552888 2.042030 -0.869389 
-0.310158 1.020884 -1.510650 
2.750127 2.249717 2.072719 
3.037512 2.680017 1.155340 
1.411640 2.367086 -0.990128 
1.252318 2.263899 -1.110179 
0.163608 1.418191 -0.265090 
1.836192 2.008600 1.464367 
1.442159 2.110138 0.520192 
2.188450 2.286236 1.212768 
0.155351 1.537191 -0.446637 
0.940246 1.870954 0.545959 
0.057651 1.356774 -1.685152 
2.291569 2.621771 0.159247 
-0.089282 1.362427 -0.401104 
0.371923 1.626957 -0.259809 
0.164382 1.259238 -2.008309 
1.405997 1.825812 1.357154 
0.450291 1.185329 -2.387481 
1.245908 2.269695 -1.322383 
0.659414 1.885419 -1.250228 
-0.155017 1.328236 -1.247022 
1.541744 1.457146 -1.107016 
1.154959 1.961853 0.572330 
1.536593 1.914785 1.300159 
2.120736 2.027818 1.816206 
2.185388 2.376710 0.868754 
0.975104 1.843452 0.682457 
1.190824 1.897169 -2.527770 
-0.215273 1.295142 -1.053234 
-0.522392 0.746499 -1.651220 
1.785218 2.554389 -0.643442 
1.039072 2.141227 -0.968365 
1.151215 2.256935 -1.062280 
1.661242 2.207170 0.536062 
1.606290 1.923766 1.373053 
1.140239 1.783450 -2.692184 
3.535328 2.577859 2.195082 
1.086304 2.062579 -0.091030 
0.195230 0.842292 -2.283857 
1.931632 1.922909 1.849898 
3.515342 2.672880 2.153282 
1.672478 1.906331 1.538291 
1.679160 1.939592 1.439037 
0.836762 1.529469 -2.682324 
0.795685 1.781158 -1.151870 
3.443347 2.391669 2.036366 
1.783362 1.892229 1.720309 
0.601662 1.461019 -2.385792 
1.718377 1.876819 1.670416 
3.435158 2.305849 2.955589 
0.760924 1.925665 -1.364479 
2.700415 2.457737 1.354705 
-0.236836 1.055580 -1.674416 
0.488508 1.718963 -0.318549 
1.609627 2.332058 -0.042640 
0.952779 2.011906 -1.665511 
2.512949 2.656132 0.421094 
3.235593 2.254324 2.805396 
1.260299 1.797708 1.195289 
2.271083 2.582006 0.270965 
2.797576 2.620968 1.002628 
2.007549 2.211076 1.039268 
0.632130 1.862493 -1.286790 
2.847097 2.715583 0.790546 
1.604896 2.472359 -0.537638 
0.617541 1.713971 -1.870183 
1.033323 1.626629 -2.771040 
1.406632 1.898535 1.159495 
2.245639 2.640922 0.032387 
0.235933 1.261217 -1.951371 
0.189374 1.561229 -1.297662 
1.177223 1.852255 0.983879 
2.848495 2.499063 1.452260 
0.380546 1.402078 -2.049417 
1.508530 1.848696 1.025615 
2.693924 2.596142 0.937274 
1.769206 2.152806 0.901536 
0.208947 1.628439 -2.452840 
2.731747 2.287226 1.991114 
0.277565 1.067714 -2.234395 
1.747250 2.142169 0.931701 
3.059218 2.575611 1.524760 
2.304033 1.918746 1.995679 
-0.505455 0.617673 -1.616333 
0.822705 2.023733 -1.282466 
1.208874 1.779244 1.095069 
1.946085 1.929148 0.551646 
1.414704 2.016081 0.810343 
0.152205 1.507195 -1.488608 
-0.276137 1.158111 -1.550479 
2.906026 2.658649 1.053187 
-0.190836 1.163655 -1.414914 
2.816891 2.116220 2.583159 
-0.321828 1.147817 -1.295461 
-0.439447 0.877794 -1.445068 
0.383174 1.383813 -2.136467 
3.138047 2.334955 2.413164 
0.709232 1.563293 -2.376607 
0.597474 1.583305 -2.136424 
0.384710 1.363908 -2.086493 
0.903565 1.700279 -2.465499 
1.686789 1.981273 1.324908 
3.621671 2.567577 2.420773 
1.098855 1.699907 -2.747634 
0.557921 1.788376 -0.370855 
0.326185 1.670791 -0.671968 
1.852482 2.575105 -0.579746 
0.805370 1.657967 -2.361339 
3.584312 2.281829 2.978477 
1.681437 2.398905 -0.321790 
3.216339 2.394638 2.363423 
0.529229 1.478939 -2.227910 
1.336217 1.937569 0.955656 
2.168174 2.669494 -0.139062 
-0.019645 0.619917 -2.073785 
2.290559 2.424548 0.544005 
2.351874 2.071923 2.033822 
1.202235 1.946179 0.718626 
2.590391 2.498770 1.244596 
2.934548 2.254200 2.446200 
3.491656 2.281904 3.080374 
2.125205 2.566585 0.076608 
2.929884 2.355128 1.657669 
0.243613 1.683064 -2.430898 
-0.350197 1.082869 -1.755346 
1.405532 1.943638 1.029282 
0.987071 2.063380 -0.738812 
3.652279 2.456716 2.805207 
2.981821 2.152608 2.717416 
-0.251171 1.013121 -1.540287 
4.123373 2.509730 3.381385 
2.973632 2.349438 2.105175 
-0.414521 0.887991 -1.476335 
2.631650 2.714426 0.478618 
2.587366 2.554942 0.832239 
0.513332 1.688818 -2.325685 
1.817913 2.355471 0.153640 
2.169213 1.973441 2.053400 
-0.082725 0.961006 -1.976643 
0.326860 1.468320 -1.929399 
2.555334 2.538199 1.410390 
0.092710 1.228287 -1.956574 
0.844176 1.963217 -1.210535 
-0.085429 1.165744 -1.693535 
3.327502 2.390235 2.503202 
2.981712 2.560434 1.462882 
2.271725 2.445531 0.706584 
1.343774 2.365233 -0.870541 
3.391509 2.254593 3.007849 
-0.012394 1.343910 -1.824706 
1.008034 2.081742 -0.695511 
0.646179 1.777868 -0.072485 
3.746163 2.484811 2.843061 
0.058805 1.357038 -1.370593 
1.703614 2.499401 -0.708281 
-0.130065 1.269980 -1.710901 
1.303485 2.020838 -2.201796 
0.324477 1.664555 -0.563496 
-0.199472 1.497326 -1.437560 
0.996677 2.050797 -0.237803 
2.684190 2.259060 1.947251 
2.519785 2.613114 0.656830 
-0.244310 0.857572 -1.823399 
0.338929 1.053578 -2.348091 
3.833383 2.372758 3.313900 
2.690734 2.096908 2.391912 
1.413512 2.346086 -1.386042 
0.895768 1.736267 0.799634 
-0.037611 1.018099 -1.894890 
0.939394 1.706400 -2.518511 
2.730223 2.344117 1.553524 
0.597805 2.119717 -0.670852 
0.646608 1.800783 -1.687061 
1.471061 1.904978 1.230908 
0.545397 1.829717 -0.993566 
0.023754 1.485378 -0.913839 
2.654372 2.124798 2.348895 
2.515314 2.617805 0.572021 
2.668463 2.082609 2.465927 
0.660612 1.896165 -1.053716 
-0.022514 0.673853 -2.162102 
0.013643 1.417287 -1.443035 
1.088842 2.065230 -1.801419 
1.958683 2.589765 -0.376606 
2.503259 2.046130 2.331920 
3.011591 2.671784 1.094410 
3.748864 2.551109 2.686128 
1.330034 2.283487 -0.512239 
0.813352 2.031849 -1.080605 
2.370548 2.383004 1.071760 
1.567417 2.452459 -0.804057 
0.022535 1.202229 -1.775906 
1.781116 2.159620 1.202498 
1.614593 1.896302 1.475443 
1.242487 2.087478 0.414112 
2.342219 1.993088 2.185716 
0.876918 2.123438 -1.204323 
1.482412 1.837252 1.436478 
2.754331 2.596163 1.021212 
2.459839 2.264232 1.600887 
3.158675 2.373656 2.294483 
1.005879 2.145162 -0.562587 
1.050062 1.826444 -2.452570 
1.879874 2.531606 -0.274900 
2.493080 2.478339 0.990451 
0.777299 1.860290 -1.796417 
0.066370 1.508647 -0.840221 
0.045396 0.512358 -2.279996 
1.022656 1.367081 -1.453586 
2.442779 2.607867 0.503525 
1.270646 2.045632 0.455642 
3.098971 2.609912 1.485056 
2.286619 2.063753 1.955885 
2.503556 2.680102 1.552135 
1.864740 2.393761 0.230978 
1.890365 1.909151 1.811402 
2.213200 2.050551 1.884359 
1.394663 2.079488 0.561502 
1.075940 2.156244 -1.139765 
1.309473 2.221826 -0.410640 
-0.012117 1.373000 -2.023102 
2.254240 2.035344 2.027051 
0.027432 0.930600 -2.077867 
1.445919 2.087998 0.616714 
2.069894 2.580749 -0.112560 
2.157076 2.022112 1.910653 
3.183909 2.406639 2.224347 
2.513259 2.079809 2.264585 
-0.192200 1.257549 -1.570947 
1.000302 2.090320 -0.472051 
1.902708 1.943299 1.763016 
1.847907 2.224176 1.219078 
3.220932 2.343883 2.517627 
3.695240 2.582126 2.490460 
0.718791 1.633735 -2.254522 
1.274487 2.270586 -0.673031 
2.900226 2.167832 2.558352 
0.704855 1.871922 -0.306329 
0.348501 1.450428 -1.918415 
0.671581 1.914521 -0.988051 
0.343655 2.027629 -0.773989 
0.752741 1.610826 -2.382611 
2.395598 2.031797 2.158283 
1.855620 1.940547 1.694608 
0.394640 1.337682 -2.127723 
1.036895 1.797703 0.843253 
0.710875 1.470697 -2.504931 
0.276412 1.392532 -2.436738 
3.689918 2.369949 3.182870 
0.299768 1.604046 -1.406468 
0.173696 1.731970 -1.342356 
2.749292 2.502751 1.298730 
3.650451 2.532265 2.577265 
2.940187 2.491701 1.595412 
3.615795 2.596069 2.361235 
0.926399 2.069795 -1.326650 
2.577506 2.656206 0.546947 
0.070575 1.468607 -0.508871 
0.237624 0.860815 -2.339303 
2.386487 2.046612 2.179201 
0.282844 1.370054 -2.027483 
2.119772 2.487459 0.321462 
1.109009 1.793542 1.031178 
0.289272 1.212445 -2.070299 
-0.502862 0.840539 -1.522385 
3.361341 2.679208 1.720100 
2.804526 2.159956 2.473654 
0.052792 1.216359 -1.694133 
1.941767 2.238271 0.913516 
2.643626 2.179910 2.179167 
-0.112308 0.586524 -1.915296 
0.216158 1.259060 -2.067544 
-0.237404 0.695027 -1.769442 
3.446226 2.560210 2.449689 
2.163567 2.249719 1.196766 
0.679924 1.882436 -0.459618 
0.042449 1.461507 -1.280743 
2.122801 1.957524 2.025922 
2.357027 2.151097 1.800008 
1.262474 2.186519 -0.193336 
2.743073 2.165324 2.332994 
2.382468 2.000265 1.590456 
-0.054288 1.421924 -0.994217 
0.649295 1.529141 -2.200293 
1.456354 2.158876 -0.164771 
2.191526 2.284610 1.532993 
0.327354 1.635516 -1.330351 
-0.091126 0.943487 -2.067302 
1.144863 1.817977 -2.622431 
0.366410 1.685189 -1.376332 
0.714538 1.904333 -1.375202 
-0.226670 0.939286 -1.710521 
1.373613 2.339413 -1.342308 
0.900659 1.615142 -2.644820 
-0.056079 1.460067 -0.815150 
1.168700 2.235567 -1.401978 
-0.142963 1.348542 -0.478927 
0.122321 1.151423 -2.041560 
1.502172 2.398924 0.302010 
-0.416633 0.744075 -1.636440 
2.025568 2.151064 1.297756 
2.721310 2.635471 0.833001 
2.231471 2.357502 1.001164 
-0.147420 0.765456 -1.816186 
0.987377 2.105801 -0.822909 
0.692269 1.608525 -2.285341 
-0.072418 1.397375 -0.447191 
0.811071 1.989383 -1.272883 
3.171968 2.199751 2.857380 
1.338730 2.308436 -1.158824 
0.831788 1.968294 -1.657695 
3.131899 2.209179 2.748111 
2.472817 2.544564 0.736156 
0.705259 1.841967 -1.645391 
0.516537 1.833928 -0.371938 
1.288749 2.290137 -1.115580 
1.635603 2.059078 0.998597 
0.789631 1.957372 -1.369155 
-0.061274 1.375215 -1.213885 
2.272104 1.992361 2.042352 
2.213323 2.410629 0.734262 
2.803214 2.345266 1.815552 
2.088473 2.658880 0.598998 
0.067115 1.430092 -1.354017 
0.756273 1.638472 -2.318968 
0.261786 1.060540 -2.295034 
1.138423 2.134587 -0.279478 
0.782539 2.075391 -1.483486 
3.746265 2.594779 2.641091 
0.628973 1.872202 -0.703608 
0.654166 1.847488 -1.429979 
0.834918 1.977021 -1.601314 
0.455780 1.726594 -1.418246 
2.305805 2.365767 1.041924 
3.653485 2.580301 2.443986 
0.460564 1.337433 -2.278826 
3.692795 2.704145 2.536645 
2.926475 2.548057 1.414239 
0.652798 1.896909 -0.891894 
2.201231 2.004709 2.023649 
0.835619 2.075850 -1.460298 
0.081424 1.336275 -1.645168 
0.915898 2.052586 -1.300539 
2.177585 2.078693 1.755769 
-0.091131 1.144582 -1.578334 
-0.209669 1.327142 -0.832436 
1.259298 2.169476 -1.845906 
0.818774 1.557362 -2.637988 
1.119257 2.021925 0.111634 
1.051293 2.065788 -0.065751 
0.878414 2.038083 -0.745680 
1.688300 2.521270 -1.072680 
3.134150 2.406903 2.153327 
1.830700 2.212580 1.344052 
3.013726 2.417074 2.021372 
1.234173 2.102311 0.033810 
1.454097 2.366216 -0.614484 
2.656542 2.514239 1.290081 
-0.139555 0.528212 -1.964722 
1.494799 2.393586 -1.323855 
0.855889 1.689528 -2.393589 
1.270750 2.239679 -0.444180 
-0.464904 0.560733 -1.695697 
0.621063 1.787226 -1.696074 
2.052341 2.009003 1.756574 
2.636840 2.700353 1.028753 
1.912124 2.307937 0.613158 
2.246911 1.989610 2.117783 
1.967605 2.502590 0.013693 
2.087219 1.955553 1.984811 
1.113121 1.863473 0.515817 
0.408918 1.466661 -2.070619 
1.474139 2.023121 0.874208 
0.991976 1.677394 -0.126274 
1.359265 1.936840 0.232031 
0.218499 1.326853 -1.968475 
0.803893 1.944164 -1.240585 
1.182545 1.703653 -2.883544 
0.151159 1.593390 -0.780140 
0.354214 1.677453 -0.499957 
1.395235 2.358580 -1.101961 
0.164964 1.133865 -1.974220 
1.734688 2.491200 -0.439734 
2.455710 2.682142 0.216799 
1.128816 1.996574 0.128253 
2.557093 2.125363 2.176925 
1.416497 2.064458 0.642892 
2.363434 2.176942 1.809751 
0.333567 1.277568 -2.174815 
1.878302 2.266836 1.257079 
0.504160 1.112167 -2.533386 
0.599549 1.827934 -1.374198 
0.872289 1.993735 -0.590766 
1.133504 2.033761 -0.924274 
0.884382 1.842294 -1.152890 
2.176040 2.122164 1.482065 
1.736308 2.002579 1.304946 
2.069854 1.946030 1.923796 
0.365349 1.690129 -1.395434 
2.573197 2.288992 1.707506 
2.405811 2.420090 1.257915 
3.614158 2.540500 2.489038 
0.325805 1.282698 -2.078833 
3.806577 2.580362 2.668036 
0.139194 1.726482 -0.892747 
0.682390 1.903356 -0.612459 
3.838178 2.551685 2.804368 
3.693749 2.354253 3.179536 
0.616655 1.874555 -1.002295 
2.449182 2.438950 0.864174 
2.344231 2.410223 0.955235 
2.052343 2.433819 1.155463 
1.780771 2.174783 1.082480 
0.532980 1.764701 -0.834543 
3.962572 2.542589 2.987179 
3.854572 2.484596 3.052088 
1.874814 2.217366 1.189927 
0.589562 1.785383 -1.606400 
0.684163 1.879979 -1.265040 
1.746710 2.088288 0.897688 
3.746433 2.582985 2.570194 
0.924477 1.778261 -0.248228 
0.955855 2.020805 -0.173224 
0.261094 1.299915 -1.948003 
3.620024 2.430317 2.857264 
1.821432 2.033468 1.212858 
1.688299 2.180153 0.696640 
0.270655 1.630335 -1.390943 
1.638985 2.174716 0.702919 
1.121176 2.125634 -0.544270 
3.926327 2.577511 2.859797 
3.649925 2.552033 2.513579 
0.373196 1.709283 -1.004722 
4.049742 2.568423 3.054591 
1.381666 1.934301 0.394200 
0.431375 1.138195 -2.333865 
-0.397747 0.719254 -1.694642 
3.644744 2.351347 3.127651 
3.876967 2.522694 2.912321 
2.235957 2.641489 -0.013133 
2.196128 2.431714 0.730580 
1.758485 2.105986 1.094245 
0.458455 1.767560 -1.008030 
0.761341 1.578929 -2.518687 
2.137528 2.299115 1.010519 
0.310540 1.437132 -0.410280 
3.892068 2.442535 3.210724 
3.599462 2.309903 3.157965 
2.302729 2.456665 0.978840 
0.928134 2.005316 -0.258101 
3.711652 2.341180 3.233894 
3.689523 2.444916 2.916055 
0.343746 1.423215 -2.609180 
1.614455 2.258105 0.612491 
0.559030 1.813169 -0.510464 
2.386534 2.290132 0.583735 
3.963243 2.499434 3.171471 
1.815422 2.408451 1.013595 
1.408385 2.339684 -1.441593 
0.805029 1.919425 -0.918118 
3.786112 2.424718 3.128805 
2.144358 2.370793 0.800251 
2.246559 2.319818 0.515451 
0.685591 2.250524 -0.062144 
0.450542 1.746002 -0.570599 
3.778789 2.464187 2.988169 
1.984380 2.140515 0.882548 
